76.9607813393603 0.0 20.87470984143211
83.46621134737035 0.0 16.661208261210643
-64.56594519321334 0.0 14.83421835342844
14.271393626199597 0.0 34.7746107551233
-5.719128297309936 0.0 43.791254029208396
23.812593694177252 0.0 1.9384542245724834
34.008919237402864 0.0 19.102610697051258
17.635102952517585 0.0 36.07933768823325
47.626235604691885 0.0 7.239046707225732
48.59910056263149 0.0 13.959118307362672
-85.93846675188992 0.0 40.72836720432637
-28.483882902110906 0.0 41.81672515201451
15.699197603680219 0.0 13.939432512514681
55.22093881471193 0.0 18.393133179397736
92.97188328120686 0.0 37.449070613587644
-17.616046151906176 0.0 38.977633055908626
41.893299173277086 0.0 31.573790119902927
20.65532296106653 0.0 27.248580707531783
-16.482827596001727 0.0 0.173658376809388
-78.3221548595587 0.0 18.24174895517401
-20.6556089424313 0.0 17.34113704874391
-44.655078252720905 0.0 11.944065543635862
78.31953166124632 0.0 11.34179575466343
-74.99853295144268 0.0 45.45255105528969
32.76448411387884 0.0 23.71510869978174
12.41640598497436 0.0 39.8537768290097
84.68568976568304 0.0 13.099245070157956
15.450633164280745 0.0 23.663345009006637
-32.80924341090447 0.0 4.713042664606482
-38.73775600003646 0.0 15.926688028394498
63.333231945669354 0.0 26.67827891809559
-41.16106478637131 0.0 20.07359884634548
-5.073169485932709 0.0 16.565204146914876
45.918127403783615 0.0 23.70278405537013
58.58004130479401 0.0 3.578626896795373
71.68849812734356 0.0 38.75625148720612
18.04129884345376 0.0 47.911861540680945
-19.53014603754137 0.0 29.940089341913577
-45.037654538487914 0.0 7.753680742423813
-39.58788363389931 0.0 41.99133896427652
-90.98733569746769 0.0 9.386360980640745
79.81961116048299 0.0 6.73700068545301
-57.46636072836036 0.0 6.363036180909037
-74.20774507947603 0.0 24.96030015402767
-3.8726612577710853 0.0 36.56623422895603
-56.71441985259962 0.0 9.629119396912266
-15.685865051444253 0.0 15.334585907961468
-33.143647577776974 0.0 15.049306035739928
57.06472679004207 0.0 24.29894049771455
-91.59779851189982 0.0 3.656642374086533
38.0150940082201 0.0 11.245178805493323
44.25582959226807 0.0 6.448511427747694
-67.00051118157093 0.0 37.27252264300914
-95.52002951189552 0.0 47.67919759250411
-35.7668679331008 0.0 35.854920371414686
56.83879992970654 0.0 44.19439328180575
-57.607859800510084 0.0 42.09505063416145
-25.813779910794594 0.0 31.953843417531267
-45.40944564561307 0.0 39.51788544781826
53.599540812015874 0.0 11.065811471085174
36.10298745063142 0.0 24.991849357844544
82.42687146691 0.0 41.38070394702967
99.9664303281449 0.0 38.49228300988345
-97.87214977038217 0.0 30.994657578157714
15.203404270638913 0.0 47.80259007173639
-27.711497571900722 0.0 16.186820445859663
-20.226340008056695 0.0 5.79665747298862
16.702718476152015 0.0 43.102479110532656
-73.36441031308465 0.0 20.097250300791924
65.09743311882434 0.0 44.32992554843105
-46.996509991035175 0.0 24.25332291658745
-32.839175928603964 0.0 22.1987982205827
-12.314520936676729 0.0 15.888946893266754
74.18024471833431 0.0 6.054248901281473
13.367517175077808 0.0 7.576142674563036
99.96730766242666 0.0 26.12391285267558
16.935403637359485 0.0 0.36901859078302124
-69.83067868114388 0.0 1.4950812577267825
92.12089221770003 0.0 21.915363208761026
55.347991203138946 0.0 21.65828470426791
40.49598155890365 0.0 39.351018132397336
55.35665692377859 0.0 43.72489135836681
99.2563953316515 0.0 40.41917970417253
23.656353766523907 0.0 19.273126192595218
62.112018436651226 0.0 6.264534690958984
87.27403170227998 0.0 32.8016963247601
92.15731662593836 0.0 7.55984878977794
29.77649468971711 0.0 35.168469366600604
-99.00119527004811 0.0 28.055987653446962
41.955851545250624 0.0 8.115050422469515
-61.95433752586088 0.0 24.417099225818063
90.39847517285745 0.0 44.804229587186065
-18.415360655870842 0.0 3.505544543937289
-43.17992896431579 0.0 14.943724275318448
-64.34223234773143 0.0 26.12538686114482
18.587419999568056 0.0 48.410795348073684
50.89380966433262 0.0 30.83352739939782
-21.90855323232155 0.0 17.574802079355912
-20.272537089410193 0.0 7.084902017233241
-35.38519356527409 0.0 32.79341901121771
51.3452773447917 0.0 6.773336907405769
-18.049418189377334 0.0 39.37356363898799
-86.15554282991064 0.0 26.153404139979315
-70.88194051494392 0.0 13.163120182197291
-18.33677856076406 0.0 28.695725551387703
-3.386080936266495 0.0 0.4875893744830939
-41.96735530220528 0.0 3.971024867006978
-69.97959203614653 0.0 8.526213306573194
-13.26290485804708 0.0 49.10002329621607
-10.375777444618706 0.0 8.872790388795787
8.895782171878295 0.0 40.37666406680364
-96.02063893774475 0.0 5.823672510877858
-28.20909582335169 0.0 44.47091851302023
34.086824185624266 0.0 39.609187045802365
-50.00915524586249 0.0 17.791826026325346
42.25046225566672 0.0 2.46328641926275
83.13992536397936 0.0 2.778615254322203
-92.56046549657087 0.0 32.582433742542385
27.957584202714614 0.0 23.42214463142449
-83.90066362953718 0.0 16.68112367293927
42.04408874384117 0.0 42.6707319180483
98.46653619536823 0.0 29.259974976489893
-63.89506058147092 0.0 4.989048081285774
44.88160223562454 0.0 46.35341114515282
-77.77601586599235 0.0 36.84063084573974
-18.99796087645052 0.0 49.93040771821329
-94.15897890769173 0.0 22.56055078236979
-36.023821818093246 0.0 44.325656983240044
87.35208972530214 0.0 24.90209138946809
-40.44189480724787 0.0 30.367361269870592
-95.46974643726924 0.0 49.58610918761606
6.978772288921007 0.0 10.42170938735612
27.581000181609568 0.0 5.974012086861336
-10.732245485794166 0.0 22.021137318383055
42.474731715291995 0.0 0.8038065590052268
50.6674671134916 0.0 38.33742967212236
27.162748600998768 0.0 45.623671015348144
-30.767226735282634 0.0 42.98694513251616
-86.74903068141906 0.0 14.85926711779178
-41.21229220798617 0.0 47.07720809949479
62.31863924215759 0.0 6.924662864729053
-90.30312730147688 0.0 10.527020102253015
-9.775015541226068 0.0 16.993118669927927
-18.72889428400211 0.0 24.45018586052316
52.49479232838766 0.0 14.380445768775607
19.72641205890035 0.0 38.67251682070994
-98.15116076754835 0.0 6.683943550378019
-0.5153882430965382 0.0 4.68093367564334
-56.39842082591262 0.0 38.62891853214989
-55.7247397037623 0.0 9.149455292976128
-62.3696458836646 0.0 48.20394345907984
-50.69713607151603 0.0 26.937574611448362
29.9306510539611 0.0 32.976837188196704
-90.40980393905383 0.0 43.845106238528544
62.446889141533205 0.0 7.61688495499051
-18.350806718850123 0.0 41.359964424570165
-14.702088158082589 0.0 13.573348250897666
55.767888047083204 0.0 16.64462936692531
-49.3567425745983 0.0 37.66462767243283
-44.90226521151277 0.0 34.636796569572915
-30.488284218602786 0.0 0.7934429997650982
81.66074820087454 0.0 46.78326360482991
-19.09225284986394 0.0 39.46271175752433
-84.32787422773215 0.0 17.629601881262552
-16.95470890733381 0.0 4.695747590917404
-96.17745916687693 0.0 9.575940638181457
13.774808359896156 0.0 44.648618116108054
-39.484214550715315 0.0 46.93320937487533
-77.95772442352506 0.0 17.9747611710608
-3.358837098753952 0.0 26.91491114038516
-4.123440172846003 0.0 6.178946363012821
-67.04130582003688 0.0 4.928712086859166
95.80844171637645 0.0 22.446975821029408
48.498645335612196 0.0 43.73095521383929
-11.24147630502641 0.0 20.341079610247938
89.36644478183962 0.0 11.260272447717707
-55.05209904826014 0.0 38.66859746903221
-40.63086423011315 0.0 22.556495932245983
42.200763265163744 0.0 38.74554718561994
-85.969880834201 0.0 40.14722541096364
-12.40324258115821 0.0 33.47626248563552
85.94121369245815 0.0 4.642196665586101
-48.11451846269925 0.0 7.111809181414131
98.88374319122303 0.0 41.67633902812953
30.952206899616783 0.0 10.138457429988351
-75.6538690936274 0.0 42.91617445210234
2.787893707646333 0.0 8.563807519934185
25.978525077408804 0.0 21.842150147629997
-35.862377861694654 0.0 2.843223543929069
11.984371295727342 0.0 31.227794757989074
15.944701061004835 0.0 2.0997987196615107
-43.841761102302954 0.0 5.8293280862634465
-31.182321327627037 0.0 29.886739649167687
-15.331768374612295 0.0 47.16376603848286
14.70340887624846 0.0 37.3339951636886
19.883584288427784 0.0 35.72493748066344
54.23132412694079 0.0 21.904513834515242
-82.21004975928793 0.0 35.525674295641295
-50.8397513500249 0.0 36.85007997815286
16.954751475818526 0.0 36.69334383247509
53.94104198554322 0.0 13.77984666691371
-31.1023750786636 0.0 25.076374997999416
-39.37741934423089 0.0 39.91696637172543
-22.57793594540169 0.0 11.65185168105124
80.54041987922699 0.0 2.7235158646700617
-4.751875443893482 0.0 6.582425651313323
-90.45808738381834 0.0 16.89105703980877
68.71649697400798 0.0 48.52399990257393
-29.129431275535296 0.0 49.73541581749086
3.27185835278803 0.0 11.562308386531573
-47.134121074349 0.0 49.35184037185436
54.32244043037139 0.0 26.699113123489894
0.4427485975993477 0.0 9.152721617826359
63.30280358218431 0.0 14.801108553763553
82.82392009303413 0.0 41.789674196757126
8.475970373395029 0.0 14.028943398321058
16.23621491894056 0.0 38.401596288973295
62.454313497707034 0.0 0.2656041457910763
-19.57974809086454 0.0 4.92002695870617
96.21587294623782 0.0 33.40073278095896
-79.51119740856839 0.0 47.792069624821444
1.496440180425651 0.0 9.39258363827396
-44.559859024527924 0.0 26.70344500454104
-66.89572211856941 0.0 28.401997237374886
-49.0817082360242 0.0 28.67732322709217
67.89079193807393 0.0 4.54143831715842
7.179914207157196 0.0 43.87189327369827
-23.161366488109294 0.0 9.906955610478368
82.73603177077402 0.0 3.981682824344379
77.13741075269712 0.0 35.784205860663604
98.98107119593442 0.0 2.449808612637111
84.42937889907722 0.0 14.603844102740593
-45.146253986018216 0.0 32.61401915038864
94.39186269445773 0.0 7.899724332218455
4.174027663866582 0.0 40.73637417260137
11.703853605000461 0.0 29.412902370327238
47.04684846402711 0.0 29.211945548264907
-15.40119175753918 0.0 23.595765930190275
-8.74899723456069 0.0 41.966743583408075
-84.14913471363847 0.0 28.961364985897355
33.54133048024198 0.0 38.10934045985824
-60.57502843638007 0.0 47.6573499531493
-13.535996611772788 0.0 36.40466752463329
-28.947089797101498 0.0 39.035029158607095
-16.333612135976907 0.0 30.778161309744352
-18.45838410075089 0.0 33.53696986129428
-11.812104439408728 0.0 12.441065485710617
-58.030341703046375 0.0 32.51380098930004
-3.5308899314289164 0.0 41.17868013030307
88.4081963764115 0.0 6.323043263992062
-61.52552678111716 0.0 2.80061343588312
-60.6752552342487 0.0 36.12569378981342
-95.52420648022057 0.0 7.524527285893267
-14.125191319065138 0.0 33.33227077616118
-29.990213750859354 0.0 40.80335122343526
-68.55495385213823 0.0 45.204167916489816
30.62084963299168 0.0 12.706032007606094
-28.048882896505887 0.0 31.504775970217253
28.73694816963436 0.0 46.39646352980678
97.18701551330435 0.0 25.98003620349057
-38.88490042386046 0.0 24.081800615994055
-54.95522084967599 0.0 36.96956419758189
12.693137271553994 0.0 22.16194568478398
19.680850046177298 0.0 45.62829813485857
-22.355714626071304 0.0 33.113548363954095
-52.19113924740286 0.0 18.55749474576906
79.98973599126117 0.0 4.829928870416877
0.7681796540488932 0.0 34.26432208052687
-61.62085561121804 0.0 35.35778709158177
67.74345520052839 0.0 44.84894395524808
-76.25225071081651 0.0 20.45153194956257
54.10738272745658 0.0 33.58031326640257
55.82786127633034 0.0 41.476758466610036
79.5948963753871 0.0 7.398503381292248
23.936880029600104 0.0 28.947363321085334
46.80236556862684 0.0 22.681271985632357
-49.269804825878126 0.0 3.531418807454678
14.06798317673659 0.0 11.508118539057538
41.90319572015031 0.0 27.423225142585807
71.68629105078764 0.0 16.84088636586741
72.59488377251319 0.0 25.768751334618667
48.088724477461994 0.0 46.79158283552326
63.264610620107874 0.0 41.066904588893664
-69.62497490006726 0.0 43.2502791710104
77.00135179331073 0.0 13.204359893681266
-60.49599802520784 0.0 19.128298486407218
-9.431364478940168 0.0 26.292663011114158
69.21682849143963 0.0 43.08364736954318
3.976155222394766 0.0 25.658487234282834
-50.2854984339695 0.0 19.744889536287562
-25.940474737091023 0.0 31.65424222641315
42.72101971710737 0.0 21.210718745146618
-75.16526379158867 0.0 17.989509321997772
-26.537249192017526 0.0 3.0803976485206386
-10.307186733655897 0.0 0.49351216304007184
73.13351948105847 0.0 23.068306521066102
40.4416251087857 0.0 27.200176858434684
-90.89556714251489 0.0 26.18163041225977
-22.006483768650085 0.0 10.76674299510087
80.01094052421175 0.0 44.9100367713589
92.00804212109739 0.0 22.383915423288194
39.07625465722134 0.0 26.598440977518322
-64.38686259214803 0.0 43.36725681601996
-7.355186540775875 0.0 2.144561608985529
78.8550451329125 0.0 16.051749967172135
63.415985399998846 0.0 9.584096219645694
45.63566100442506 0.0 17.843046987094475
75.09647693029311 0.0 19.259027753585823
18.829712699676065 0.0 15.812175961820635
75.62560825373106 0.0 8.647279490668813
-52.07490641494444 0.0 49.21625578043836
-48.062080674926946 0.0 45.44776041007397
-35.6977551697405 0.0 8.156167200437803
25.05271535797023 0.0 33.898985148040474
16.162846880505583 0.0 18.275018239191265
6.412525094064009 0.0 41.16933789009515
83.79663003115121 0.0 17.016803251668428
21.095425593996325 0.0 32.6094251186536
-22.245330655494655 0.0 26.32860167172722
-67.16762164219641 0.0 6.640008891080412
-97.83386352257988 0.0 0.9436430276434371
-57.43523745606469 0.0 16.81649062104793
24.163066202256573 0.0 14.515433082048185
64.90780194566557 0.0 38.24504011404889
-45.56138584693159 0.0 35.93670174722669
54.96228758718166 0.0 40.250263701868114
-40.35969063438407 0.0 43.17360236651331
84.62655058553582 0.0 49.28330533294284
64.52573181905979 0.0 3.7072539201199737
69.52840982264797 0.0 15.061706457013468
41.57114615434185 0.0 37.75527166255209
89.68758953510701 0.0 25.68305655493318
-88.93189734315136 0.0 48.383422791928616
26.609711715915154 0.0 3.0985577056449607
-37.852941696820054 0.0 10.304743668157911
-93.49158094779406 0.0 33.427296113828454
26.710003949365714 0.0 5.04765925679248
24.356219112010535 0.0 28.32353249306159
-32.52830704670275 0.0 21.512145351199035
44.60023911594476 0.0 1.0468396895494225
-87.36915841752071 0.0 35.629498961663224
19.127386571865785 0.0 9.876583913411663
52.09303883363708 0.0 45.853366720363965
87.735774763688 0.0 34.978515476844116
2.933148393041037 0.0 8.383657425870744
89.49204211886229 0.0 38.097070779855926
-42.921780167893054 0.0 13.236524312420277
-72.77410525906163 0.0 36.48296017986861
-36.98715343990815 0.0 3.582101939988119
12.792697496858736 0.0 24.438575027510385
-74.31106689222347 0.0 2.2924537580757463
-30.80214652738549 0.0 47.93919619687614
-41.5680866228286 0.0 11.495182053137121
69.73609441618132 0.0 6.386447532649337
13.024231508266169 0.0 6.8557040239347
-8.71565190499038 0.0 29.277594366523417
-74.38324163241852 0.0 5.785190391092854
-46.1915654824441 0.0 16.97752793364198
19.868925048530528 0.0 11.228580342481397
22.5451235589218 0.0 44.11901370670352
16.603508666578094 0.0 14.069110009753105
-53.23006344624821 0.0 9.217820658474524
-20.041583175101295 0.0 34.36460088787372
-89.3961733372939 0.0 16.19573644259715
47.633959563475884 0.0 29.384699806549726
35.39759913551114 0.0 36.78095703419191
42.57596387280941 0.0 4.700615173379003
59.355217688784506 0.0 31.227328899988915
-92.06656638028532 0.0 3.4843647639626942
9.524828935721303 0.0 2.7980773566268544
61.68601752207633 0.0 28.67233065600831
-28.086139640316816 0.0 45.836220607841646
46.05715144902436 0.0 19.908116977223266
-49.81354631808357 0.0 10.410225799357026
88.89329636453357 0.0 27.902449840855674
32.367547288418706 0.0 45.540291640985636
-21.910950652420055 0.0 21.50158503090601
29.70532942953372 0.0 16.454004566858572
60.94499122974349 0.0 33.03008515953078
-64.7104824024677 0.0 23.022878864896335
71.73215771722957 0.0 15.039007093650408
-78.78520011067124 0.0 40.57391009373034
10.668010052376943 0.0 46.09073144243024
57.13213393659407 0.0 17.04671746384446
9.090943458283647 0.0 45.880512903423934
-94.3121262591304 0.0 29.28314483102857
78.81033287472073 0.0 37.89605757191561
-83.08729677922769 0.0 43.40373771254898
90.4615163913264 0.0 10.45098994683541
98.18556843633857 0.0 45.19417024827934
-1.4503471196880326 0.0 4.88999747437156
-4.297203546675661 0.0 32.442109049167996
99.81532297915149 0.0 9.75575111848631
-11.406523766713335 0.0 28.045250756967967
76.54912541533545 0.0 9.658122614585357
51.89658830418546 0.0 26.234015308773976
-34.80590439028262 0.0 28.076240180896626
-17.195959655888444 0.0 15.931557685120051
41.4604891336665 0.0 46.63829648159509
20.36271207453622 0.0 40.98864453419392
42.765610890596236 0.0 30.855715239099098
40.66890537505691 0.0 37.17180605351332
70.18663925448595 0.0 9.517300171713854
79.71733177526895 0.0 23.579050102808214
38.45331537218175 0.0 37.64738987465617
86.633283262849 0.0 48.827277608709174
-91.14014471549791 0.0 26.788585863875554
25.787187687256676 0.0 0.6798041544847033
86.48712331640516 0.0 44.207891106739076
-75.95804706404488 0.0 46.07643283139432
65.42818888160548 0.0 27.045148520043043
-32.07323635737254 0.0 49.16406692369695
-4.7424750201240755 0.0 44.58105452861301
-66.29828950303309 0.0 32.89914453978567
19.924808652040227 0.0 38.4252812952882
-1.1447641128216475 0.0 33.84169845804708
35.968404751085444 0.0 23.0546368083427
78.47070308460818 0.0 42.809418471008385
33.313778661109524 0.0 32.63254823462228
37.493005298632994 0.0 28.961193842033456
-69.18258760650629 0.0 49.04090928149828
11.87230580966255 0.0 43.77272138977058
23.061168988124308 0.0 41.13889823631094
53.86231833052517 0.0 20.67662579755823
73.02890907151072 0.0 15.798486656702076
-29.07453083991163 0.0 46.70782308234923
-79.44132832528888 0.0 29.757872959870745
88.28164743712722 0.0 38.88493808535795
23.35026191474742 0.0 7.308409684588563
69.80553241014758 0.0 44.82696740303384
95.48919584077939 0.0 3.5392655701045053
62.29467773116423 0.0 23.381726556821203
-94.87980027803842 0.0 36.603216319277166
-83.90369629963564 0.0 35.63617825847889
1.296187374435263 0.0 9.124986835072379
-78.52075372121342 0.0 1.952499378580358
-64.75412086198381 0.0 0.3845846101824979
58.11291338637102 0.0 35.92232755113746
23.244124446864987 0.0 29.129575464563224
91.46713888695658 0.0 47.32876739861133
-96.47153460217379 0.0 42.9343365116702
-8.576894060299708 0.0 32.087086866373234
-78.96880517295773 0.0 47.58025392809158
31.510051957827756 0.0 16.693031574456324
20.282093251876375 0.0 44.27390314036106
-24.41670993358997 0.0 47.11117744840654
-55.5141049490725 0.0 23.12924442395684
52.43861369833115 0.0 6.819950094836768
47.116498510607414 0.0 27.29124125475525
96.4884855187658 0.0 31.612278102560985
-96.23458321919169 0.0 46.325785821535185
-4.479518348530192 0.0 26.35651819579178
59.92246604800425 0.0 32.38039678348624
-80.19040864999927 0.0 43.80653021191603
-60.967335471396346 0.0 28.06216863312117
98.82125981152231 0.0 45.60809495677336
-80.06473970672221 0.0 0.47060403486666735
39.197240899406694 0.0 12.193133715110987
83.4946597146683 0.0 0.7350169722282252
64.51375060510387 0.0 1.6320203930784705
-34.5874275837206 0.0 20.64103115176999
90.80748163647553 0.0 29.230951891748123
-56.20731606202614 0.0 27.329883883748597
-39.07909140869299 0.0 1.41778232000212
-45.5847467098295 0.0 47.19196924736869
4.9467390407019565 0.0 17.990738437859232
47.5737398641121 0.0 19.693823258023386
29.70248235462344 0.0 28.005563679452404
35.99453198660504 0.0 16.463313089183128
74.07756886577005 0.0 43.581902812686685
90.73745319837278 0.0 38.199240673632076
50.3894708407403 0.0 37.57149514872053
-25.40485954409506 0.0 8.7692574687587
-39.95926373907843 0.0 25.353042658291624
-64.316848924482 0.0 49.84646206183099
-79.83892556571061 0.0 9.384570608191495
-53.22038755261423 0.0 19.515863585408233
65.54209786546625 0.0 46.12718945332824
-6.136930563218712 0.0 34.29506829613065
71.64951123907696 0.0 40.39573980028407
-62.27588799636512 0.0 28.085612918705166
80.64715550930842 0.0 12.296676922800087
-90.6155208515369 0.0 21.632595052676606
28.97488658395679 0.0 27.845524444967197
33.58678653543157 0.0 42.69457834725335
-44.489209318517496 0.0 44.41665596658061
-35.40928237811869 0.0 40.5758790912143
41.51512569482031 0.0 46.775445746361946
95.26790603940262 0.0 14.188013860466492
29.494863043680198 0.0 30.021742573765064
27.396354265914738 0.0 32.631559885377655
-66.31007464848756 0.0 44.8076114814266
-57.6949240424526 0.0 0.13161552878012128
28.17736767930458 0.0 8.933470324888281
93.38346622756191 0.0 5.787794770329446
82.26630925702466 0.0 20.393594709388292
-86.75786981254512 0.0 8.676798642523325
-32.638278304138055 0.0 35.128269066559845
-67.49207658038856 0.0 40.31957053498812
74.72105595127812 0.0 44.4463524737365
-74.6151249285391 0.0 2.9821928423732382
-76.24977693563852 0.0 36.954021434119966
1.3145789119293028 0.0 39.35364031683732
48.21340670604002 0.0 18.71378136298355
-88.31031691644453 0.0 46.97948132097077
-5.3370973773087655 0.0 7.778318512761584
-32.46821528621888 0.0 29.27458869412034
57.35930491055248 0.0 7.277792841416048
80.88013407946175 0.0 0.0767291154262717
78.79793257570526 0.0 30.063214678414973
33.34423936746202 0.0 9.068976750786778
-82.57998858655728 0.0 19.464708423103055
-84.74341992154581 0.0 21.4196486106281
-64.97258801424002 0.0 11.205174285287939
-31.69272989898957 0.0 32.77121456166535
-22.240700912491903 0.0 30.462113735716155
9.749514831580726 0.0 20.875462278434824
-79.93931258745239 0.0 48.78603607768448
-94.20642578451562 0.0 9.292020524251605
32.28391425801712 0.0 11.291162038495578
31.282656417376472 0.0 7.679555006027883
-39.83763936407374 0.0 12.056255575110903
-0.7013863521192434 0.0 2.624663003823585
-19.18421736070502 0.0 26.604802796999667
-38.242734980381954 0.0 37.110001285498896
-15.531823268913044 0.0 43.43470790769763
-87.80375499160672 0.0 15.139190233277539
-72.41645836769146 0.0 19.70170746853309
1.827700892597079 0.0 24.98650802564622
93.0067949776238 0.0 31.276105538831555
60.59511562381357 0.0 24.156427904150384
-51.05543578027083 0.0 40.90705746415183
-87.53043821642741 0.0 23.01990270324602
-14.259812348786056 0.0 5.322294372252068
24.725724595426342 0.0 11.950038798893619
75.40374895331027 0.0 46.05994138246183
-75.21362465995043 0.0 0.899102898387999
98.14700363450811 0.0 43.92263222205388
-57.196715173553116 0.0 13.432101154771042
48.89117448096229 0.0 25.910667024581556
12.371446794628667 0.0 40.34728959013542
-16.866183128898143 0.0 17.530277441164007
-76.19058430823146 0.0 32.61931720522685
35.92089413655333 0.0 40.006677655405
-55.933097656639895 0.0 7.097959392895403
-68.52535731804197 0.0 26.398054919482185
43.97913994627416 0.0 38.989520747192735
-22.078592458107977 0.0 14.327965678662558
-67.00402203854526 0.0 48.240675450158854
23.336659795824872 0.0 18.331819211776757
-67.06945349589907 0.0 35.712289529233296
-15.64479026839723 0.0 24.331475512473844
3.3916249229724684 0.0 14.037793447035323
17.234884487765896 0.0 44.10622863446492
38.0415075979719 0.0 31.96450208990635
65.95041671088794 0.0 45.50924218150659
-59.558685312031876 0.0 43.672993556346334
-46.108177255237614 0.0 7.163907471626602
28.80765398893402 0.0 33.0166788628771
57.086689800934636 0.0 1.6628319765803645
87.48578411415178 0.0 33.06635581712199
-2.6844694163306713 0.0 35.17621866336963
81.87416652220449 0.0 15.713077047762408
-73.98087311590082 0.0 33.766843463228945
95.56295230805304 0.0 16.41422290673356
-83.7699892525558 0.0 2.910091762807526
74.44215998731835 0.0 42.514817615262466
-73.83022548526921 0.0 43.417144005944195
-89.31314379277153 0.0 10.637097571431859
-48.990861235369664 0.0 19.517121546786793
89.41469900687568 0.0 5.539804162205297
-12.366393878432675 0.0 39.37290822473116
-89.61643737044159 0.0 20.27961257445905
17.01165987793827 0.0 2.356195856416876
22.88885462726769 0.0 32.37981207657507
29.232892855109327 0.0 25.766164162434933
-7.181120679268531 0.0 35.09741197005033
-91.34567297495151 0.0 16.302442296662484
-3.570103453410553 0.0 31.531197903722667
-86.55368338771333 0.0 3.935488403241644
-8.944635680758878 0.0 24.86489677202285
-65.7198342972029 0.0 29.892079542086115
-39.64510163182475 0.0 25.61636184565727
-94.31004964072646 0.0 10.696118930803971
-82.58295124963458 0.0 42.577220774563024
43.497911057335415 0.0 21.851044330889565
20.162192746127346 0.0 13.124719432079047
-44.89479052823357 0.0 22.17845549873288
-59.84857769988281 0.0 17.604623246528593
74.81471144968529 0.0 29.95593183855963
8.64962087807099 0.0 18.363608055057227
-77.58716076354261 0.0 34.5064255662528
79.5606586683694 0.0 8.398298647359054
-81.01974240345999 0.0 48.214840063491856
25.22032556607728 0.0 10.920344599009384
43.34225694032588 0.0 48.32655494653017
69.56624594735547 0.0 27.620481501047394
-25.401531314670933 0.0 22.08939986235431
-71.85137598050282 0.0 27.3168620764272
5.916019043368365 0.0 35.83203432470668
-27.840321327905187 0.0 30.24052724977918
-24.816709709909816 0.0 41.990770973205635
-63.49471802128046 0.0 21.143992661347895
7.568076247329785 0.0 6.778510777436658
-36.980629519171714 0.0 40.95522293779856
-83.25833178412311 0.0 35.88036555218373
-52.47856748015485 0.0 7.987011218618056
-15.872734200622432 0.0 8.594319380615051
59.14517229903686 0.0 49.86672734145354
24.70642069144145 0.0 47.25818333370712
66.89097235653975 0.0 3.027382352316316
-55.61435287034742 0.0 15.09776820520079
70.07138631368923 0.0 20.294856530010257
-27.82005309560924 0.0 43.004695007876556
-67.77468549711972 0.0 11.64130858464537
-85.95050190269411 0.0 32.43536909021501
90.31314876572773 0.0 26.219034449324862
-89.92948891999018 0.0 27.601977995880606
55.500648694747014 0.0 2.008568441573655
70.136530758621 0.0 11.596464359098357
-57.565190600679486 0.0 19.045165652823805
42.69176352098921 0.0 40.67180978715142
19.02125780518527 0.0 37.8973729694195
-55.49479959849839 0.0 40.30281912446642
-34.22254414878594 0.0 42.63798625698404
-27.275380843633172 0.0 38.08141235390852
-62.20667176999568 0.0 22.881629666159718
-46.56171219506275 0.0 23.03912372884603
-74.59268968119216 0.0 36.52031482211191
45.04098017023142 0.0 49.458600872550065
-76.09762574521477 0.0 0.5275339178594629
90.93610980895684 0.0 9.471346365934002
-91.9947314398589 0.0 2.707344693603242
10.030304975743249 0.0 10.151279041372963
-97.36166455520991 0.0 49.963132424065755
-20.167061551455774 0.0 7.297283845156399
32.234476955545745 0.0 14.533791808411328
98.59704748055748 0.0 30.797820569789007
-48.90035941144648 0.0 17.697963015580452
-61.80859955207825 0.0 44.649761556792775
-87.98613154485224 0.0 41.12381464751843
-44.603747789749136 0.0 39.94595004821694
-34.96871575798323 0.0 43.29397641419613
-71.57994076291128 0.0 38.67705338706536
29.55204003300142 0.0 29.228757051135368
83.46400392097456 0.0 1.2729199913483202
-59.38845679715254 0.0 11.849611382578223
82.66680881205804 0.0 36.08979171891378
-23.79600391988832 0.0 23.660582632934045
97.0467398443648 0.0 37.92103385113047
-11.343245225515574 0.0 31.661541766564977
-75.3970631829084 0.0 0.0978322333986148
28.971038841930408 0.0 21.467837363113105
23.7848288957385 0.0 20.773069479169802
-68.93148369069982 0.0 40.89755701777474
-20.993863261963753 0.0 0.36891229846488516
78.78244006348757 0.0 41.86797801590622
38.30058729773674 0.0 19.25985878912015
34.725473326254956 0.0 25.46115739292521
-87.49257179506765 0.0 47.14489401571618
-76.56405264613169 0.0 9.469390740314187
-98.80956357743209 0.0 17.780682806323135
-95.7636720586966 0.0 31.470102204093514
-93.91751153538954 0.0 38.923508613037846
-40.84839543655523 0.0 7.714063292170015
2.744275521189593 0.0 29.99146553692339
52.34850287369966 0.0 8.999826815875906
-66.48519616992064 0.0 32.3451157913735
-1.038689963688654 0.0 19.01837347855712
61.48448902693647 0.0 45.11296914352018
62.83718429995625 0.0 20.28671475804963
78.6253322137124 0.0 27.17697461681457
88.55091934582953 0.0 38.17322806719009
-76.42813971757745 0.0 8.603019133045253
89.10508273643126 0.0 37.21857934777669
21.549011005034743 0.0 18.073212323629456
68.7681030193128 0.0 14.100375990516772
-15.116263238198528 0.0 16.2574199089016
99.23773653153961 0.0 29.92333161606106
-61.0702070119502 0.0 7.546562390714229
55.612538234399835 0.0 46.51885759842415
-86.74962286035795 0.0 29.141436848784974
20.17157713774455 0.0 39.2723012644015
43.210633617445694 0.0 20.931900468285807
94.96023050470853 0.0 33.18031656018102
45.436497234052354 0.0 19.336397959935443
-72.69090854908154 0.0 28.040478001997826
71.91356705459418 0.0 38.651934615966184
40.395372595408986 0.0 29.59920780885637
55.39570446243823 0.0 22.403938874605057
-18.580607194276567 0.0 22.025519635575176
47.75503589226443 0.0 31.92007002465661
37.417358925445086 0.0 25.189759896603636
-8.424788979117452 0.0 5.022691683572411
-97.75310395321635 0.0 15.730710094586053
-86.54504969752004 0.0 19.218561347570844
-81.42440122190908 0.0 33.117088178273804
-29.216168285539013 0.0 28.647309252342605
79.63347397629116 0.0 5.226746209118155
-7.487222576953371 0.0 30.178645379415837
49.911895068908194 0.0 48.578485809651205
83.78836201431855 0.0 35.73294650163338
66.29276656268044 0.0 11.581549270736907
28.5308837227021 0.0 46.35161180781394
9.83007101607889 0.0 4.02383848876457
-51.588207894533596 0.0 31.40368343168617
66.81634861905937 0.0 11.657177144952119
51.96060209368375 0.0 2.1966548856246213
-6.18452111159435 0.0 16.1033019276376
-48.49914715876955 0.0 30.070564725341963
-20.109299814583565 0.0 2.2228773154853556
49.58004943412652 0.0 34.106264168983515
-32.94422111593454 0.0 31.82519343794014
-64.93613874710842 0.0 49.59385991164467
1.3658997412067322 0.0 1.9115730738347991
27.698085557504058 0.0 5.870429559655349
-28.14515137757516 0.0 33.65487600252837
42.996893832368926 0.0 31.318709718974365
-22.83726391883488 0.0 17.707243770430697
-68.28392301651945 0.0 11.711186449055788
-73.7884482225628 0.0 12.77954640080059
-32.76199325117659 0.0 0.905147172702786
-96.61016032094216 0.0 7.042074150755129
21.98783591893556 0.0 6.09588545025031
91.79725632209022 0.0 24.707111579660555
98.8949767403787 0.0 46.169731431986186
-32.771676086507995 0.0 3.772599933337717
-42.18876174534323 0.0 42.9991761098289
34.26848764192516 0.0 48.68077721909338
-51.888407595763674 0.0 16.709765669319566
25.361074389842102 0.0 33.69189744062702
74.05734662996679 0.0 22.508451925580903
-34.930664461682 0.0 12.400124384906041
71.03826247994789 0.0 23.578737538964912
-51.230166109903166 0.0 2.5780764052442007
29.69230021279958 0.0 48.0848381531968
2.5488433261347865 0.0 41.20410373053747
1.6020590211736305 0.0 22.43303783352018
-18.610882364440357 0.0 3.0963748636054556
60.490956804336776 0.0 21.442831622716106
24.681254371157408 0.0 17.610401781460595
91.06761801152578 0.0 33.963675261386086
-76.09287621955762 0.0 1.7276136496049421
10.179118312188734 0.0 37.92962169284418
-35.70936137951341 0.0 30.2811699449318
-1.4507900597821646 0.0 26.967658642492655
50.77870510662868 0.0 6.426268199005064
-69.34485807249459 0.0 32.28410464241044
-87.0738070612721 0.0 23.160242389666564
22.641623666833198 0.0 8.31112354238206
-6.559712872140793 0.0 39.26819231283101
-3.945409576824275 0.0 27.50662639096731
75.90198871304304 0.0 29.992046041730212
-32.115180503416866 0.0 18.62265314345841
32.88150975364411 0.0 48.2738223933776
27.068545135357326 0.0 2.084937098345824
-93.55382152270388 0.0 44.99322110194761
-24.76000032107848 0.0 2.0280756956870425
92.0492083784776 0.0 25.112994056913845
12.031093364073442 0.0 45.83848798491281
85.99242686916463 0.0 18.772987599420173
5.060443664028426 0.0 34.01384263005273
-60.0577176804167 0.0 39.57648717995993
76.6753744629824 0.0 12.490957770695715
13.938965494975037 0.0 10.788608390726617
-51.92878013935225 0.0 45.481188118638215
90.79778920480484 0.0 1.3895297922334127
-88.61888214900031 0.0 9.386596388420998
11.535247730551262 0.0 9.286672972280835
-57.96895911570936 0.0 0.9243595780712321
-50.05267505107327 0.0 24.550950871982657
39.650519480897145 0.0 33.69252659359747
18.56056878633285 0.0 1.8394866517623065
-32.608547727215836 0.0 7.299112177202849
-48.70548934557524 0.0 38.24100260849865
-63.46544412174857 0.0 23.553829500351238
-62.61069387388092 0.0 43.703381392658905
-1.5445803939696532 0.0 2.53183402123337
-69.64965153311212 0.0 14.08638055397633
-49.00466189534605 0.0 18.917389498540814
-63.20757160618553 0.0 28.310190810143588
88.27623625695202 0.0 17.601084277826285
51.104674989952514 0.0 34.09602197392604
-95.494311641502 0.0 15.822420861680953
73.58955404676118 0.0 11.208596461300141
-69.03937563113473 0.0 29.216137440635382
-68.50101779456794 0.0 22.52530870597286
-8.486012833633735 18.11042755396469 27.960537348410618
-19.930406233488355 1.667005509327564 0.5121197384703025
15.702644413078437 -12.386563625009826 0.14159790658125004
-2.701627503975668 19.81669015829238 4.932719085885156
9.066875914265088 17.826714816682284 0.9519818175814276
16.34737149600026 -11.522302077786286 14.901720658010017
-19.910478228414647 -1.8902001787711373 28.773122771576894
5.062473745812217 -19.348678496811146 13.457732884313657
-14.414241063905713 13.864690928816781 16.322382412376804
-17.863590413178606 8.994005645439266 23.5806720071328
-19.982459977078893 0.8374325432178181 23.535801087729116
-3.988181349027193 19.59832670222822 25.076090021276837
5.926630933909668 19.10170269303826 16.793122857719293
-19.43969785530959 4.700866653530145 19.963602767166
-18.12573412455887 -8.453269334748661 13.14037273091261
-17.26848743105063 -10.089565988864258 25.294622930476965
14.617342988673336 -13.650395010822303 7.2522149257732496
-7.202966573305086 18.657901075518907 0.068003050969353
9.93085258343435 17.360246742661676 15.458972829533632
8.005534370639396 -18.327886387701973 26.868225051487926
18.72644330939979 -7.022842799026324 13.785648567170924
-19.729818397963804 -3.276318968502452 20.51333034181905
16.084432733524224 11.886590076247035 12.922132919704644
19.22050216735591 -5.529222046062792 12.51976789389952
-14.743851172922742 -13.513654301879441 19.99071421673206
6.288293588543649 18.98571472829719 6.4175906942460195
18.88624972068816 -6.5810007968246325 0.003269595127218805
-9.983741998509107 17.32988446895147 28.57413387724849
-19.98246890208521 0.837219551370792 11.408997220796476
8.91764483086755 17.901832606481978 25.445150234625217
17.945776428207672 8.828879226084466 18.132068438825403
-19.87429942258591 -2.2387993347777586 5.961124064133712
-17.677304061649327 -9.354834103927029 23.958306785377058
6.421792120202806 -18.940976373062217 12.093229468531863
-19.508614505737345 4.406127559040306 8.712888462739345
7.915873222542082 -18.36678935265065 26.05997660757663
17.499268968749956 -9.68377950798885 11.558561141690333
16.90499788166164 10.687424695454723 4.064631731448172
19.635269162066486 -3.8021316301781076 28.751237852422857
16.814858803736094 10.828689828895222 27.4005073286005
-19.9244814233923 -1.7363870561873938 13.466654785028826
-13.513968231305144 -14.743563430978119 9.88089474464794
5.715979284258519 19.16579194351038 22.042749134461296
15.932708138688438 12.089202263481706 20.457615293152525
19.965022886537263 -1.1823117778501973 27.351182400525843
-17.33432764612035 -9.976025514048553 2.8839580311900246
18.230985905357237 -8.223816201658805 12.959629235138632
15.829853317440033 -12.223573288868227 18.952763164279954
-0.1741982632495011 19.999241359738644 28.983939047729702
-18.700805741513367 7.09082961423984 11.978488304927655
-13.38668901632754 -14.859224649359588 11.088723970970758
-14.683903473230217 -13.578769413641929 1.8752196138018473
19.913903080624465 1.8537702380541758 9.835426195432186
-8.211557923495166 -18.236510534339725 19.721020291036027
19.99745688157401 0.31893301740060254 2.8624668423831756
2.5165950228284952 19.841037006443862 2.725169814430833
19.988078751009635 0.6904403257611375 7.174369755240958
3.4048832281770296 -19.708038212934305 17.02670837352014
15.90217742929672 -12.129334400830327 22.025906393632113
-19.99659998390702 0.36876697738508923 7.181224140832169
-9.713048959861936 17.483039778691946 17.005866831050373
19.563021791036704 -4.157905530844001 27.730257030836736
-5.580727793987721 -19.205610567993222 14.15944120461803
8.08276092879694 18.293960089819635 22.890806243035666
15.253543085282047 12.935587475852975 17.139162038526596
0.7464436383839625 -19.986065693245287 8.755860883285973
3.5614386439519508 19.680349457907646 4.712795542818732
-19.32255802938197 5.161274183878083 15.834536800039004
-4.590734990934515 19.46599990349865 16.772318669276697
-19.881142860044076 -2.1771905241660496 2.800105317037469
-1.812451015558791 19.91770622627515 16.254948116630572
0.5893979690871449 -19.991313364409955 0.40760620826179705
19.98794242801093 -0.6943756148660861 12.777134964383118
-0.4446849904629614 -19.99505577034625 29.685896144415608
19.909990695368897 -1.895328602201748 8.530982102428725
-19.878288647123092 2.2030979237558164 10.043100211011742
-6.533459390710768 -18.902748699327653 16.701335579881544
14.193288931991336 14.090796616693188 9.421377277760568
-0.832007612706932 19.982686589455326 20.233295826672475
3.4063492017014534 -19.70778488608164 2.758820009344869
-18.8312077508663 -6.736884639335377 27.73658046874571
-7.576943751165213 -18.509184838659923 14.331096625671897
11.990754365373995 16.00693005386306 13.890156482023828
16.837396353025042 -10.79361311383445 11.60874222248476
-1.1730875632466746 19.965566998433978 10.713486563694351
0.35994723812756596 19.996760687315444 13.761701610356878
-15.877463887533803 12.161666847108583 15.169489436247412
-19.013923488855212 -6.202476405433556 6.754345829781437
19.531731046463644 4.302497220058152 22.9306357621719
18.73828868440365 -6.991175665075956 1.0857839746628284
8.658189663631596 18.028747925149517 12.250501982380143
-19.45335460950267 -4.644027824738044 1.668081889437787
7.492011776634557 -18.543725611073118 19.281461710938792
-10.41545924481297 17.07390431974011 21.17505858950606
-1.6503252671766375 19.93179436258859 29.009262572279006
11.70174134960587 16.219409649766053 27.143489305012192
13.227322809924678 15.001264322784476 29.21431824574501
-18.30739641557307 -8.05228144584268 18.2391292706041
19.957378811693033 -1.305002286046284 19.86979279712654
-4.695488022228751 19.44099771701819 1.198145988806265
17.423178385223697 -9.820023164772767 20.73491194292048
-19.644067536397152 3.756409272891807 4.973330324383425
18.646548209559707 -7.232305294203615 22.767144507992473
-19.78732725936871 -2.9088966861413237 11.921844324451863
19.052367110815624 -6.083363171364272 22.160860226082214
12.53978208409152 -15.58056049323956 17.99898099806702
6.298934562205204 -18.982187002056868 9.60070997350723
-7.644571083922899 -18.48135636101555 3.9977876837537654
-19.748720221954702 3.160387570371293 11.057635734049764
-19.84019338279245 2.5232373121446017 26.286197100386296
-9.780874445853907 -17.44518544110214 27.83957151939719
-18.52849171796898 -7.529607868750871 0.9917883076224565
-13.891120987937555 -14.388771931561106 19.310390228949004
-19.99153779921177 0.581735698308908 19.2764112301889
17.162340090212954 -10.2690838261195 12.52577435897632
15.866862361395933 12.175495012709632 14.073036592944607
-10.803856564578576 16.830825390693484 5.253167911832646
18.756428791019246 6.942361198282921 8.455816207305231
-2.156724971496202 19.883373390783685 7.0342295421518575
-19.103654523659884 5.920336463466355 22.463218614307277
15.252222476453483 -12.937144566277645 0.5148592874798974
19.71349687259988 3.373135196518931 0.9058592942722543
13.992206799191344 -14.290491555179742 27.24107211689325
-19.810201177958948 -2.748805065622866 11.662522563810894
8.660659853949305 -18.027561423947244 8.210504422200804
17.404720065751253 9.85270112369373 21.647135482183902
17.680758728321745 -9.348303096866001 27.999935983592305
15.45629041570569 12.692639070948344 6.339032413460294
-19.260167999046946 5.3894274880072395 26.96893910051451
15.006266183515848 13.221647977066578 1.2248598773766806
4.737263004398326 19.43086048601963 17.048071857798874
5.707573702073435 -19.1682968058041 15.648248378926231
15.754616572799002 -12.320391903023504 23.19523960415896
19.80800588676984 2.764580038575726 28.69483631153736
17.590510545352917 -9.517034136422328 8.316455876970274
3.9250704693884737 -19.611063760294456 8.227532931469279
3.9542804742241486 -19.60519487103277 1.7479223107480757
4.594667746382851 19.465072008609397 14.884664240331166
19.655898423403777 3.694002865298419 23.377041314580193
18.21155150028372 8.266764297626603 17.588082152350413
16.3674917446563 -11.493703232144455 6.425564368642391
10.455029450832669 17.04970261272089 28.62674286767176
-19.985176620863438 -0.7698801419009407 23.268160352322937
19.82841626996204 2.6141744825287865 18.871133475811817
-16.617798539925396 -11.128736302314534 6.684144997983077
18.758054949172326 6.937966166235724 11.231116328250808
19.055870757688535 -6.07237924262566 17.414151204415436
12.566323606336802 -15.55916164260859 22.048218795762956
13.317962142271808 -14.920854009640834 21.141321420694943
-17.725105154029727 9.263943397851095 7.930357218424989
-18.964578640255144 6.351752277724499 9.042835467063682
-19.853424502481264 -2.416926876071451 18.06801786079776
19.11794516821254 5.874025242133266 25.4670163186974
19.503101694836086 4.430465470002197 4.598845252471422
12.036736489283008 15.97238162227421 13.505990218085593
1.3093094195594102 -19.95709670377565 22.755592672058864
-11.085085122452277 -16.646948303757874 3.3568036854374905
-1.3843498638212144 -19.952031862808816 11.265032342828714
17.167036475944904 10.261230853731787 20.33882793515057
19.163965921403854 5.722098405591409 0.3368741611389514
-12.278684603468209 15.787143643121537 19.714322351027235
18.06677958447638 8.578547397196537 3.667128242833908
19.77231135877059 -3.0092696010546454 15.92014239186217
12.371999380684226 -15.714122034792435 23.858296257942264
18.170511636059597 8.35658464229393 13.480247080339193
13.172631512143555 -15.04931158044389 8.128708174572854
17.641689781416478 9.4218247519398 23.6638901745048
-19.66607088205255 -3.6394582099654316 20.573315369742225
-11.164339386889608 -16.593900266493872 0.7111327619547014
-14.285616678461047 -13.997183863766152 11.863459295133636
11.701214403792354 16.21978980987369 10.323849947717703
5.377409091653579 -19.263526973558125 14.525997471330754
-19.51618263739959 4.372483878033481 8.345004072213486
-11.654905814485389 -16.253097257306827 0.699774411129489
-19.24121564875955 5.456704166246381 2.132377686851995
-13.315158626179397 -14.923355881291593 18.76867548866173
9.665534543544466 -17.509352985977202 18.750073106955924
15.38557233488408 -12.778269207058116 25.19051689101251
1.1569377580031355 -19.96650933498659 6.598036161430606
-17.233293742295523 10.149560916205091 15.200188449171888
-16.598345215517703 -11.157729881409592 17.112983487213928
-16.408121041540667 11.435626956409099 11.221455026653697
12.09458225183251 15.928624553101189 13.368764464550695
-19.487161769108436 -4.500058464575606 25.73054919885515
-12.01240722703144 15.990687058784022 24.098883987713084
18.740453148497974 6.985371556971928 14.266743945728448
17.21179434198134 10.185977396859823 2.654504563665286
-12.566207169562269 15.559255681800522 27.47688457391901
-18.603336375037777 -7.342743064904039 29.228595722652905
12.14036888366737 15.893754854296736 26.434250070309808
-18.93514113312889 6.438977424132686 18.30178954838307
19.15879750188918 -5.739379607728086 25.8526716175307
18.78526789969178 6.863942739913381 12.377111150760994
17.62489587024239 -9.453202926157498 6.739913066749549
19.910224135448757 -1.8928747650581075 15.586456627214929
19.841032647759512 2.516629386807105 0.09546004979591793
11.879894957715724 -16.089378353237905 26.046059073553124
0.520827007983193 -19.99321733057877 23.529558577193185
14.27709121823481 -14.00587970625917 8.516353445652737
0.45094688655657195 -19.99491552634081 19.015340816222643
1.7050217667405978 19.927189986923416 3.292971602133309
2.4500426996260685 19.849364996644326 4.595446023499921
3.354039481963712 -19.716754782504868 9.620082381488317
18.467385683730072 -7.678259308486628 1.8565578333002741
-12.307362245398462 15.764797320629926 7.87885109147613
-19.14127218273761 -5.797559764793756 15.88586356300585
-18.18682991050994 8.321010624087743 13.466348456369182
-19.943195973151216 -1.5062982362351465 17.131875243111214
-9.222452880761809 17.7467282297929 6.538521998791891
-19.99944046906353 0.14960255473721307 23.18712809269868
18.795747700046935 6.83519336933348 13.863329940258902
1.9008456514713947 19.90946472935127 0.6371052599234972
9.504426403449616 17.59732589745981 21.328860619749687
-8.37256666364636 18.163153015454053 0.4683876245516616
-2.189842094756699 19.879753308329345 5.4050236964246
16.412982686032958 11.428648185502183 21.449907665905386
-16.08634949983137 11.883995951247838 24.91450592535865
2.160535392310192 19.88295970972569 7.366474064849967
5.710613833529648 19.167391310355715 11.37720190868668
9.964335635861346 17.3410500067298 7.236861949373226
19.487695450079013 4.49774677421593 14.807217476788924
-0.25838587371025334 -19.998330848855037 13.668469893950327
-0.19979500573713313 19.99900202399316 14.688475134860301
-19.896976332706352 2.027395574554515 6.700835421877315
18.123953448207107 8.457086460904948 23.211529098275623
13.339750854225299 -14.901377357385304 0.3736128712425679
-19.654092311246696 -3.7036003322434135 14.884452381135784
13.190610813678578 -15.03355534669247 29.601201569650883
16.384995413331907 -11.468736866154543 14.550333903472298
15.783131553848119 -12.283841351707693 20.881500731894135
1.6475906300194803 -19.932020597919117 22.03962879206592
18.0461399539817 8.621881045416092 2.075373183025836
19.563178348970677 -4.157168854685246 13.868336432397502
16.934996688795355 -10.639825522558645 5.318506320175004
-8.161311123818981 -18.25905256962224 29.628743268809195
10.35578048462013 -17.110166876870633 25.45048050771016
3.303153937460702 -19.725343446070536 29.95084961134643
-17.661425936645877 -9.384776709350755 23.55561110024022
-19.73261946382776 3.2594062489609628 23.215194226094084
-18.374682217585516 7.897534640807004 24.709632381360223
15.134055317804014 13.075181438039323 24.48887581923148
-11.836326441761717 -16.12145701740548 6.756386663831125
7.463757078927474 18.55511601329294 15.860181805877998
13.425351536410934 -14.824302213722863 23.40670116187993
-3.785203204990906 -19.638539576478863 13.153632220004342
-7.442857103889154 -18.56350931615805 11.204745959035543
3.750527556327843 19.64519134671957 4.38669394499971
14.521798025738292 -13.751995567904443 20.476154082298404
13.948955341489452 14.332712404884603 5.475063033764288
19.94090480823944 1.5363318094516931 9.403934258365563
12.598921870283613 15.532777205203494 27.942802738662788
-19.999736804474207 -0.10260483302378395 16.713825981818278
9.218058411873606 -17.7490112151434 13.205697980966859
-19.621416193684183 -3.8729867743420017 3.4903447085674255
-19.65606087667606 3.6931383418990222 5.769174913565452
16.5462331438846 11.234863984410971 24.014996984083886
19.99748831090224 -0.31695623566698705 21.639916681721367
-1.6512963146740818 -19.931713937369857 25.028690072909722
13.567245111422535 -14.694552054641928 17.505864438927837
-10.719324027077885 16.88478878761919 28.62858433245651
2.893320152187398 -19.789610872802584 14.561163195487513
4.835162068417123 -19.40673099138905 4.194350818319932
18.930920347014197 6.4513761954333315 16.50448312099012
-19.993187143557602 -0.5219845234132905 28.15089405106137
-17.080714456634027 10.404287272607068 22.313210727803973
-19.352170401908346 -5.049108905094296 15.409618938082048
-19.473541970341806 4.55863610407061 29.695680178105487
19.71597262706167 -3.3586341522938885 12.873908076537509
-5.106741587038785 -19.337041923810595 9.323896353334518
19.896407219976318 2.0329731274353424 7.502940489522234
3.2265044975357657 19.738025958220376 17.497092205871517
19.98108319660107 -0.8696633202029392 19.052367248844465
-15.992808932573752 12.0095821095569 19.522461282382743
-17.320751495230027 9.999578373135877 26.39666732720297
-15.251752123386186 12.937699067716213 5.852981866834935
-2.084143143174602 -19.891112270528218 14.619295541026787
-10.420095576055564 17.07107519126629 12.239212455038915
