74.49850014699194 0.0 49.449479670409275
7.5267474566491614 0.0 47.305747935604494
-45.24402214535135 0.0 22.418756016828695
-87.15794348209477 0.0 27.343879567802897
45.2223468499154 0.0 8.449844156841586
-71.70466513310048 0.0 17.745044709845626
39.94968347363445 0.0 8.54241888826348
54.89529086833039 0.0 18.203671349358608
-66.01739273517845 0.0 16.094669695413486
-24.618491977188484 0.0 23.30121966613017
-5.440898193606799 0.0 10.138584493297026
46.42722046350144 0.0 5.106004964319316
36.262620216093836 0.0 28.779954666647427
-48.76010790560936 0.0 23.199918961493193
27.940640799255306 0.0 37.651423072582304
36.84838041451914 0.0 5.7998549112309785
4.216685476177773 0.0 18.7750502807099
23.860550805940363 0.0 33.37295947795671
-73.31273702494099 0.0 20.495975793764533
76.73100712849902 0.0 32.48556047173698
95.07876455411593 0.0 25.294626568313745
-52.08075281371058 0.0 32.788575697104875
2.1165963556975385 0.0 27.081014513131652
52.0356195929362 0.0 7.219126676662746
69.92019715255171 0.0 34.39544020126781
59.192367453176786 0.0 35.539058209717524
-70.76804518352557 0.0 25.16143868202129
22.995172762090135 0.0 49.62403851204622
11.05965735709276 0.0 1.3885008252420006
-74.08634541151046 0.0 41.1741748030624
37.230884477208576 0.0 16.305477011364584
-9.829819681595438 0.0 23.21746539889395
-72.10162981819737 0.0 47.591285250035774
-52.363594878857135 0.0 28.026107251990705
70.5234109645503 0.0 21.64186950308614
62.86203116433512 0.0 3.9012929326427526
-14.738450136498216 0.0 16.430312031727784
-61.184041775108476 0.0 40.60718287828951
12.549337963231963 0.0 39.698922856726206
-50.56325219189388 0.0 14.58069713130008
86.27359988232453 0.0 34.117108845444704
3.829632747096113 0.0 26.393724580264816
-22.863995575155016 0.0 32.944813199416764
3.241577274235837 0.0 15.098976672993631
14.471779247797883 0.0 17.226024815458157
51.570455689378974 0.0 32.57306758343694
89.81482043768398 0.0 32.17329058766814
4.5122036280877325 0.0 14.77990620926477
48.180565539609574 0.0 22.25267182874789
-60.90255179842452 0.0 44.70807838385601
54.1580388315308 0.0 12.506115899953496
-16.57894185920277 0.0 18.62441432257903
80.99244127787472 0.0 33.93860432629718
88.06884105815425 0.0 3.375778251077816
14.523140653946797 0.0 28.50821546305476
34.49585787475766 0.0 12.295996178494251
32.83929482706648 0.0 25.13335974552302
63.11280460105243 0.0 44.55341560036643
82.04748011225405 0.0 24.02244383473122
-27.76667815297202 0.0 43.07619529460422
-95.95406863027645 0.0 41.05205584336635
16.639296179793632 0.0 23.03718841694446
-95.88347569222356 0.0 1.523410644033596
-52.46682987276407 0.0 31.02279559262496
24.260218772111614 0.0 16.782804717595052
-81.54737528702267 0.0 48.96269819810865
-64.18146364829911 0.0 32.223848663296394
89.72043119070668 0.0 4.611900437331457
16.135850233660022 0.0 14.739141476319068
-34.454187744331776 0.0 46.932943869965634
67.40015238297377 0.0 1.1711642927296206
-44.34356099305852 0.0 5.397966117382475
-88.35600696920567 0.0 2.8927952505525436
-91.13463108214863 0.0 46.52907192934334
7.092903580660945 0.0 39.44457495305759
-27.478946612103954 0.0 4.220668656076981
-67.76258540010838 0.0 21.982223529985305
38.31775367781552 0.0 1.5256487327087176
89.35397617165111 0.0 8.31349254659849
-63.843543815852044 0.0 28.408617756427688
86.94903010904619 0.0 47.50158712379222
99.05201805466385 0.0 6.258489723247767
73.23978627538202 0.0 11.395380548602057
-84.0585477455131 0.0 29.959896660688596
57.923226909052374 0.0 1.1240369407219786
-88.40115282557855 0.0 38.33836364350841
-48.183134700276796 0.0 35.94068423929194
5.919066977184812 0.0 48.073057447937245
-61.46022906431639 0.0 13.971790108380238
20.01247485590551 0.0 15.352115255933835
51.217058554167124 0.0 0.40335429321637917
22.26404013528547 0.0 27.632911284766838
-77.54104533389983 0.0 38.16916383209
27.898209678062074 0.0 4.843254583643719
-49.92357263716276 0.0 24.929609884302245
15.275664165660658 0.0 36.858657810182564
-73.70011792123965 0.0 27.376497866309258
90.11294163355777 0.0 1.9837731307426665
-54.530787419094494 0.0 49.73274315343241
-79.89524745210676 0.0 8.402557415414796
99.75210415032365 0.0 24.265694305640473
-4.396549904825477 0.0 12.360898292394108
23.16588720281952 0.0 6.269403081705422
-75.75481847378074 0.0 49.11185279571799
96.56520233582242 0.0 28.65719139611109
62.19834693833394 0.0 21.638910131776267
-32.70615956259945 0.0 48.000506659623184
-65.39482282008073 0.0 26.68647735554227
-33.69252544636723 0.0 46.64863713237722
60.158112084182136 0.0 0.34789445407948927
-97.45580194492885 0.0 34.477977365071865
-16.36966507881681 0.0 31.46669279594998
-89.51783175914335 0.0 27.73885802981482
-32.91170382640358 0.0 41.123234475730435
-13.003001647202225 0.0 29.120121426901253
85.52620318305983 0.0 36.72267083532129
81.99597855478117 0.0 33.55066758392475
81.8421106477177 0.0 41.846036114076426
-40.677133475014514 0.0 38.91680816289698
-66.95194224410419 0.0 8.560440683922183
-33.40619093933486 0.0 40.295380116814854
-91.2806064277082 0.0 25.97906341312427
98.56819974857382 0.0 1.285196109837683
-5.814397977931222 0.0 24.182985524042927
72.48791632740387 0.0 23.00886415793782
-98.58871128627813 0.0 43.789378287259154
38.36400849314734 0.0 30.32039009435209
-82.42642967623301 0.0 11.846639863730612
29.928638008332427 0.0 5.793525641985958
54.16481368528227 0.0 28.014595828262078
-22.945686168513518 0.0 27.21183211021543
53.29334187881082 0.0 15.86608553217818
-49.56442356810547 0.0 9.554042685569819
32.68660686742149 0.0 6.430559823030791
78.74728775783473 0.0 1.4371156069970914
-91.4146041347137 0.0 22.256957969691975
-42.459252207609644 0.0 9.46771592167403
-2.775020101967158 0.0 14.110290678659565
-64.88622252150188 0.0 20.529158238527007
-87.20204304570835 0.0 27.412679816515258
1.3673507795407573 0.0 21.61224890259662
49.47285503385709 0.0 13.483549848102932
50.35762877566552 0.0 36.438412098466046
-37.40773958548187 0.0 21.75853299337087
7.429378298535539 0.0 14.051245643168208
25.049768982385416 0.0 3.4282572038906167
-56.95784592652831 0.0 24.682443734500715
0.02360585382761826 0.0 35.26461669743481
-55.7973554907234 0.0 42.978069227839875
-49.611897198360296 0.0 21.355549371069806
-29.063727051608595 0.0 46.204715652522474
50.89491906766986 0.0 40.357082674655196
-87.42718833592569 0.0 27.677993365559544
21.095518768294426 0.0 30.815222413164058
36.843461115324345 0.0 15.680451844191484
2.9247164207074405 0.0 42.69545320791517
-18.326876477671746 0.0 13.967680613404715
-61.21965673292957 0.0 28.946726262898842
-64.70802324863645 0.0 20.69207995965917
-58.792545447374046 0.0 16.964526028853278
-66.20667903914719 0.0 21.719971183377158
-49.816024414587275 0.0 10.576370840214267
-74.13660024476003 0.0 5.962585656239893
-43.93460970326599 0.0 3.2147166686608717
52.36028959585579 0.0 16.604779265276598
2.588263716197929 0.0 2.670414364169915
15.010463450395633 0.0 10.379858878543619
19.363452471141684 0.0 14.067163838886804
95.93609104541392 0.0 48.78867256834564
-83.33988221632845 0.0 18.988392478937634
-31.83055952607549 0.0 25.937303421214708
-28.797551682865375 0.0 28.167040086916057
-7.4517547215743605 0.0 31.434575209522336
4.045965959506631 0.0 8.859864644192895
30.81935280678084 0.0 28.812695280147903
-35.87489874054279 0.0 0.8367512207846428
35.8285696516775 0.0 9.368479132704365
-18.917132158801465 0.0 6.287021422336764
19.165523191067322 0.0 2.296259762691677
-12.487291551860096 0.0 1.090583412464391
96.357844438435 0.0 19.858048967574405
25.12700668816528 0.0 44.67706419442206
-79.09329264165457 0.0 36.223899136038725
9.55612874177956 0.0 20.18958305700518
-34.37733296799286 0.0 16.503875821707283
-21.660532878366908 0.0 19.338216562126277
-94.56175739877031 0.0 24.544090444504814
-64.14480322786133 0.0 42.10267532187921
97.75077812264686 0.0 23.637568727617214
-62.35917856342825 0.0 11.574800586118455
-46.285364670523975 0.0 13.962547136269038
-38.553720744046906 0.0 12.652841408124955
-91.00114556038108 0.0 37.767007762424164
25.08201533502539 0.0 49.787061622742954
79.14223427413737 0.0 47.237076721083035
31.339544452180576 0.0 17.96284126102775
-10.532275717521756 0.0 33.44664727193492
4.180497393734299 0.0 30.9112752285581
-87.32980733252016 0.0 46.9105015702654
-60.01179069557967 0.0 17.916514839358644
-32.50306774473577 0.0 0.18462632176408644
-94.35610078101473 0.0 36.59637188817498
72.93279582662475 0.0 0.6600552383511871
-8.174951814359702 0.0 15.27461706629466
82.8945645453922 0.0 27.336658160786165
9.513382974337702 0.0 31.76506297005123
92.94511194568514 0.0 44.750224478846235
32.168933354753506 0.0 40.58644492807084
-39.64484653454663 0.0 7.591600046621128
19.99379014343161 0.0 25.46287809955436
-16.634131246011762 0.0 5.105448241386168
33.81839683416942 0.0 21.401018621426278
-45.499385116489655 0.0 17.31796597595415
87.46461616415164 0.0 17.3650568084939
-72.31055447201024 0.0 21.994108930144275
98.3447918425083 0.0 37.06334549522668
11.572055530971781 0.0 45.79636910802577
23.313313925975663 0.0 28.430508344907384
-79.39790112823553 0.0 43.225739137534674
41.97244719461247 0.0 31.6694515275532
14.509063066580325 0.0 40.8581873320157
94.36126208717337 0.0 23.477604713595767
-34.03671669584361 0.0 44.322768498576444
39.18855823688048 0.0 15.647218003219088
-81.59591197040976 0.0 28.628588509920718
96.2727640540615 0.0 31.091742384875694
36.66518709446086 0.0 3.570768042476197
63.055186213075274 0.0 21.79996934986009
92.07631541704532 0.0 45.3923493299209
-35.125299200614094 0.0 13.64101101328457
51.10669779971988 0.0 40.18672190581902
60.160988233766375 0.0 8.704157407873447
-76.45413353779429 0.0 19.575348106560362
80.27007181635278 0.0 24.82799608051998
73.38825693851939 0.0 39.505705823528
5.401908400589889 0.0 35.79217752862785
-29.20958617127974 0.0 4.525123407246657
-95.60635658610974 0.0 15.389444456320906
17.273030440196862 0.0 47.576391334679386
-3.3645373403615793 0.0 2.7742349524857266
38.31397473811825 0.0 8.532811039512383
-17.54219247084596 0.0 13.58609310041105
-14.306167441532708 0.0 3.5029818380245823
91.26171487580677 0.0 18.543384578889526
-16.344601976448786 0.0 2.476175783121337
-59.741790220268264 0.0 21.253117499030573
44.15975136557083 0.0 18.502295371304484
37.78288643356427 0.0 35.97777203933338
84.67060690398228 0.0 25.346648433993877
-47.35205555995747 0.0 42.8751598557288
-74.55815713806484 0.0 30.667679635356244
-62.396911085940346 0.0 14.940719419614801
-4.497266702559273 0.0 39.52352931592149
-24.086778510446138 0.0 36.107712578610915
-97.49525744052238 0.0 30.51034184038412
-86.53097373912266 0.0 23.328690798322256
-21.480701098590927 0.0 9.482035469580019
45.67649239147872 0.0 19.94112970681084
16.755887532138658 0.0 11.631463812426373
71.65263935127771 0.0 34.265919163663064
53.447048019097025 0.0 31.44697368035081
-2.525061487052497 0.0 13.127269888992355
34.80069814679376 0.0 14.713421496119722
49.86594420353475 0.0 31.57249628071107
13.409212525826874 0.0 46.29541150313882
-11.029815072188626 0.0 38.18800724869061
-10.127248188854935 0.0 29.633573099196692
58.16823817543656 0.0 33.43314129910226
14.442097090416397 0.0 30.78371513688467
99.4145838779803 0.0 29.214377052919126
3.2293983827347716 0.0 23.878463363286755
58.14464632948966 0.0 22.808220698119243
-2.3478009365676513 0.0 47.67916025466246
82.40543749075721 0.0 20.438759684964484
-16.34773911352589 0.0 21.036574287387626
-30.066454686141526 0.0 21.092116480165124
51.175993863126735 0.0 5.0217543609529125
-71.1295660664328 0.0 49.366774750765565
-46.83513735626088 0.0 46.486778110966505
-9.510475339199658 0.0 21.04925936439251
42.85700075901596 0.0 20.399513488028475
-12.171886508389079 0.0 41.588508747186914
37.27429512091922 0.0 28.016785136443644
75.43104954674462 0.0 13.824191201963664
-46.618369853734485 0.0 44.94033097698278
40.17106327211465 0.0 9.66764706410816
-6.63725439055132 0.0 40.291906745117025
-55.974406936554885 0.0 8.911346830782636
-46.20427047462212 0.0 15.777291159476741
94.04674174885471 0.0 22.728655540595533
-44.47885643018472 0.0 38.759212696468396
67.86108325691768 0.0 28.429784978641564
-3.2432931037785266 0.0 1.4560842592404255
35.98370240524065 0.0 0.9414544642941614
-94.29187217847308 0.0 15.849281681809686
78.64211934959707 0.0 31.240810137344454
-9.51439109356582 0.0 8.246847492942205
45.56329835222431 0.0 8.91914692549009
15.724607815187369 0.0 28.575057424177764
39.62571629338524 0.0 44.22105146244989
-38.67155168001683 0.0 33.617989988299755
7.215649826828894 0.0 13.400945084625231
-48.98580697869601 0.0 15.21772290364008
28.324734429757683 0.0 31.52042606866383
6.127384636517789 0.0 14.075305993747984
-99.79253766747877 0.0 26.500212967046938
-15.555279157452716 0.0 25.349971751383592
21.940206992002544 0.0 15.84192034154563
-93.93323682002854 0.0 21.943269162841332
-64.1880029107202 0.0 25.161647586191453
97.62127186012569 0.0 42.653753555000925
-75.13350836898346 0.0 21.39628415482637
-53.41231072561536 0.0 22.938639442783483
-42.486241580220984 0.0 23.427588510232706
-23.372552337327974 0.0 17.31472147041222
-81.05386253459817 0.0 12.335847637888525
47.47513273072627 0.0 29.356656717392394
-58.76559228301181 0.0 25.01527097437605
-22.33488387508082 0.0 43.23241033888785
60.29804834849182 0.0 18.907838349007733
30.72336403345477 0.0 7.4307971865730735
23.426870225161707 0.0 41.23466679540083
-94.42636985948904 0.0 31.502548892188177
80.18772149428094 0.0 20.129659492045704
95.05120498001418 0.0 5.873906080750624
-22.79998556460079 0.0 31.661435628663188
-18.164152417194884 0.0 33.71194355476151
13.31530066325817 0.0 24.553265798283096
-85.03642383349435 0.0 38.08253872133463
-54.50303540885202 0.0 36.445511187099534
57.46043795189527 0.0 17.959552409037354
15.412949926316983 0.0 11.697098481483165
-28.51071187381882 0.0 14.133038895761295
29.68235737020069 0.0 18.95214195285761
-30.63578795433692 0.0 9.955110806487216
-30.312470549754053 0.0 31.516164994485468
-49.219387888498424 0.0 13.254430318295658
98.7704265252097 0.0 15.79078220158705
-75.67312920781228 0.0 11.702096511860411
-22.267527131121838 0.0 34.73935025853383
-98.16688754923388 0.0 40.68550008667348
-65.67971052614075 0.0 22.414195792979886
-32.577840050899454 0.0 38.47868496347834
2.28186676296194 0.0 12.117184454840524
-18.974681079538925 0.0 19.645536761616018
-70.66307881810067 0.0 32.968873119868
-0.8669518547103223 0.0 25.605052865094493
-1.5133125268087753 0.0 38.08702957085178
-73.57176909848144 0.0 12.387870518517873
29.304446589259555 0.0 6.251529227484171
33.21607030649045 0.0 33.824306180316086
-48.28896668913247 0.0 12.69346299321712
95.83508257375007 0.0 12.101126980901356
-18.923208367757468 0.0 38.29721135825052
90.01939123022817 0.0 14.191650834969638
-0.04294009893285988 0.0 15.598580419199726
62.48594501815859 0.0 3.5270639987064922
-97.60607892573657 0.0 11.636006689304185
-22.067734024163244 0.0 6.865642853305509
-34.80004361036171 0.0 4.5191127103787085
-50.33160644032763 0.0 23.114483199759235
34.02379722294248 0.0 11.104057587054307
-83.54808966390515 0.0 48.08349765525741
75.50055022735481 0.0 38.25907196081529
70.25363095378256 0.0 48.40830388919133
51.13592872879255 0.0 1.1100838016993353
91.34940530110086 0.0 34.93151970012783
11.337555433418345 0.0 16.74264529944434
78.41810666155894 0.0 11.564718524239026
-30.30802021947261 0.0 38.08901996212037
-59.041071673793866 0.0 47.873107679050534
36.303446835367794 0.0 6.307443546088315
-90.98547422156294 0.0 18.667780213124185
-57.33827502026016 0.0 29.560773682222706
90.58777586673199 0.0 35.25504191788747
-77.7668733212963 0.0 48.90727001023655
10.8861718096462 0.0 40.302299165808265
-37.61442465688185 0.0 29.76884526964641
72.94645468224712 0.0 40.99525276452459
45.67388617895665 0.0 16.28908431704455
33.372648085807896 0.0 44.30631660743381
23.47804899179731 0.0 8.750048123479266
2.744578676839751 0.0 47.9350000373842
-64.99127001203296 0.0 42.04172298701022
-42.31314263331056 0.0 37.90480327354789
-77.71069660045913 0.0 47.6413152302306
4.743222714915319 0.0 6.739742085399719
11.880059304736818 0.0 49.800066217513965
37.22061455428499 0.0 9.969808321924395
91.46691459205294 0.0 39.442091048057456
-83.47846301309278 0.0 35.92676041090496
-47.4675180574083 0.0 35.087701152020045
92.44229536248116 0.0 23.635174659561965
-69.29760814590391 0.0 32.36053627252481
-11.74940873719099 0.0 16.440970052412577
20.458744380674233 0.0 49.517239016166286
23.724620711356906 0.0 21.14612015186906
68.14468054308526 0.0 43.535506804432174
-12.75405784722983 0.0 18.55838651431127
0.9599615501369385 0.0 35.39866350847946
59.04801003045429 0.0 38.58654217453675
-72.1977953117032 0.0 38.66423092018979
-72.95060969621582 0.0 19.64261925238094
10.202920718581638 0.0 8.874686392578285
-21.81143753237002 0.0 44.6698271067156
51.23469900463192 0.0 45.88222040372438
-50.64764098989565 0.0 13.243704292133202
74.0265142285698 0.0 14.700210066187974
89.81844264719342 0.0 22.098750613762093
71.05797803936048 0.0 48.578791112193855
-40.36684964780575 0.0 45.41074495139665
86.50368648433275 0.0 9.03069434973472
17.334177434103793 0.0 4.41515016403653
-61.38486837456305 0.0 21.717121475203854
-62.18777643878231 0.0 35.52047723930145
-44.92179638630947 0.0 45.36074935319585
61.253207869617654 0.0 48.04537784886599
80.19050058090099 0.0 41.81950003684638
5.851795630723203 0.0 44.402305808869386
82.57209736636108 0.0 37.608089731685425
7.331442676618607 0.0 3.940361483624372
-56.35591877914683 0.0 12.503138497251104
-65.91500231802887 0.0 5.579812511548143
95.26189166769117 0.0 38.379044564062895
-92.96714342112031 0.0 38.64853937644363
55.98560489160272 0.0 46.145599560104664
-25.711189250623462 0.0 38.864208014321555
23.7787060962292 0.0 49.492585268509806
21.443009289232307 0.0 22.968936399507946
84.01556708448018 0.0 39.7363605242119
33.153241747984794 0.0 33.44432234233247
66.67945093249622 0.0 42.13381793243012
95.08148680282659 0.0 24.14976974407923
44.81454871059174 0.0 42.58869910782645
-77.37829953866981 0.0 21.907782107535745
-91.28357974746295 0.0 43.67013530912343
-51.672947831517966 0.0 28.367233281364783
16.69667413901037 0.0 14.349325160179955
25.736329246650143 0.0 6.66116383628702
-70.86187513054752 0.0 8.47983232387946
-23.612938749086027 0.0 40.660994641174305
-88.28055926357861 0.0 20.949274409581058
-11.13206675458433 0.0 19.658273869607456
58.92036334740109 0.0 1.423515469022374
-78.33784739233744 0.0 25.766222660272813
-99.73177030905416 0.0 24.11007747549802
-28.08561274631134 0.0 0.6092646380642552
-8.81042357936279 0.0 21.820294499641772
9.382163471015843 0.0 15.518933330599305
-7.397391984687758 0.0 35.96205195924681
-10.00232302365201 0.0 6.20109973849276
66.8539389713504 0.0 30.125285281532072
75.05263135415424 0.0 39.57919120465662
-47.869151766804066 0.0 4.534768623205476
-46.41955441498757 0.0 31.866902676271458
-36.34580429729149 0.0 23.21186585752615
20.384123446011216 0.0 43.96212309696583
0.725018696918255 0.0 32.08104601584885
96.33743928711803 0.0 49.131782767541054
56.74499251347714 0.0 33.6694895949851
-81.80855246089996 0.0 34.71328023576467
-51.69553595338303 0.0 43.52821427715677
-34.061690978461684 0.0 46.83804387881162
-59.60989938586536 0.0 49.322813154340274
68.46046721304577 0.0 27.48719721225194
-99.1550058458569 0.0 35.297598747033724
-7.921216972457714 0.0 40.74418599954589
70.7394301267419 0.0 43.552260332230155
0.5063568077920735 0.0 12.107932716680136
3.4797912499605417 0.0 7.666093960423148
78.7548972779586 0.0 46.66611619133966
-49.454954608083376 0.0 7.714561415640459
-94.17638999986076 0.0 14.02647227767002
-23.968170805113488 0.0 16.26136073178311
-92.43090168402178 0.0 36.7120288675833
40.214393919017965 0.0 25.71690280594353
-88.2408033509942 0.0 6.625916784665908
-53.84037369751715 0.0 46.5334699786604
-57.34259214340216 0.0 13.287330985724033
76.70869971813241 0.0 44.36802204557972
75.54675384600912 0.0 41.58986819586306
-45.5041258565444 0.0 32.22848303642513
-82.34282119233998 0.0 3.489048853648591
57.839136329776125 0.0 4.481552263385824
96.52829557042892 0.0 37.72214019851939
5.182924423114613 0.0 48.85516619092634
34.17751430576226 0.0 33.14488307823704
64.7692263889816 0.0 27.707519230024452
-70.76881744980656 0.0 25.535431550173413
46.237954358250846 0.0 21.38720063172081
-92.94225314186748 0.0 45.37501472984087
54.280597495653865 0.0 8.471587333199137
-41.55263622639356 0.0 10.167262949066686
8.223358705770806 0.0 44.019880248845006
-51.99328606212554 0.0 10.758434116897247
-15.175587543848806 0.0 18.55935064497493
-53.591499283539726 0.0 49.76375474100531
49.157688338748756 0.0 7.643875403044708
50.54468395439355 0.0 5.4754650083386815
-22.61720777878915 0.0 1.1276277318959527
-48.791880177321964 0.0 31.47737287589753
-78.45853374250731 0.0 11.853080873220613
-91.20583157342142 0.0 25.774907861086255
68.461056666986 0.0 34.742844841866194
-61.576266526070135 0.0 26.891150062035894
-55.048216314569444 0.0 40.68498883589939
70.55180909456976 0.0 44.65863845503687
-28.559260966598686 0.0 3.9837353669032796
-4.726222817680025 0.0 20.582762929122183
-54.65569369350889 0.0 30.058755571342427
-57.04012101622895 0.0 7.34355833449134
-90.7271782183823 0.0 29.09436911105429
67.98182832249927 0.0 23.303304149417926
-17.847940531855656 0.0 21.704891238108214
-4.0640278583016425 0.0 10.339927386770137
3.6859451491642545 0.0 7.076437539874414
57.14717732529323 0.0 46.82945848552239
88.02688383929777 0.0 7.504586121740187
-32.93053191208463 0.0 9.799685729974067
47.65003764804362 0.0 18.263204356659994
-71.34713977129658 0.0 19.87897277467352
-56.504972236014694 0.0 42.86339004053404
-61.67333625539197 0.0 6.437891101927068
-42.80759041747375 0.0 8.899365869904475
22.814050114940954 0.0 29.490536782646785
-94.77783553163243 0.0 15.33190939751497
26.769264967349045 0.0 24.20935717772218
-56.714057457636734 0.0 9.691846764513878
26.271469542535726 0.0 22.102391053878424
0.1646734294242927 19.999322055050808 0.45052443859811886
11.093658850066921 -16.64123593121412 18.39060295526429
-17.507498344114108 -9.668893511195675 19.670227582945866
-5.531983398874325 19.219707585563807 26.304612318516696
-19.916734591206207 -1.8230971514020045 26.339908529637277
19.062025611002852 -6.05303061329376 11.699647720974532
8.247953270721272 18.22007867282681 15.11161208807973
-17.068693188059882 -10.423996971022117 26.666966041012405
-13.45581371581501 14.796657637631705 28.772899461459154
-19.669080171746693 -3.6231595600250746 16.69855735401929
-19.827787655016643 -2.618938087769479 10.638277312544474
-0.22121478314344575 19.998776563073022 14.231716653382696
15.65049603167527 -12.452388283478658 9.710079733340747
13.507766630124262 -14.74924542700749 23.315493907138666
2.3224044586386587 -19.86470330839339 18.837513530687
18.921590340715827 -6.478689603471483 15.281396513017496
-18.710565608201815 -7.065036066516251 12.5804794228222
-17.822583147020648 -9.074994764050038 26.55659204184908
-19.918106047327537 1.808051848652084 6.517420288328635
-17.47611887016868 9.725495834955368 20.016888974201716
-4.393032852324932 -19.51156739881227 5.556668649271312
-6.548086262049603 -18.897686797720965 15.282681542273913
-0.536145739937285 19.992812402099588 16.393551318638767
-19.88264747043592 2.163406934991206 7.466128185586882
-19.566355639228107 4.14218867257956 19.747119381738386
-11.584850468910798 -16.303105213822835 28.733778522307592
19.934785076575782 1.613797989443365 5.3477930343783395
-19.99989416147232 0.06506558157247681 18.48314387499385
-5.888291818096394 -19.113555908436794 16.611733695367874
4.293089157242943 -19.53380110188396 29.721756946011837
-15.479085253743518 12.66483003073235 11.40210201289506
1.8618122695412078 -19.913152815990387 5.405070012545359
-1.26650097246829 -19.959859099871842 18.875118279888905
16.54832521032506 -11.231782259878443 7.890358341411421
17.583565268721372 -9.529860043075951 11.760563309626205
1.7261569372287657 19.92537031595792 4.4778491293884395
12.81219894055983 15.357329139779402 8.535773079707878
-6.04824836938744 19.063543523233086 10.588549749589314
18.88881474742941 6.573635024649084 25.823618406294383
-16.214644172246512 -11.708343792673334 7.1428774781569615
14.184239471858632 -14.09990604950854 21.101136568598243
17.68136328950037 -9.347159580573587 29.326794935791032
-10.652146249998296 16.927249636862072 17.93060387234343
19.348088089505392 -5.064729734224671 15.417549068719834
19.07268591619892 6.019356439190766 17.222085300001073
19.70439091113929 3.425927439542665 0.4043649737251942
-0.8222669605910653 19.98308977724717 19.631740363556073
-11.719196042101352 16.206802402904653 16.461617625256785
0.082026625004677 19.999831790112395 4.146429356904902
11.746756724179917 16.18683744475535 9.582984336061328
-19.43762368692333 4.7094357842056915 28.388498514663944
-13.594798043756168 14.669064937803073 22.524331393779917
3.6880715105884616 -19.657012197503104 5.5447032085541625
-18.97222768084143 -6.328868526546762 29.544103182013565
-11.40430344271309 -16.429907576931843 8.261179582161821
-2.476577693172304 19.846071725398993 15.013794522202305
7.130673991390629 18.685649264301876 25.15796849712503
19.710110894796852 3.392864352550877 8.969434237076557
-5.539384912086751 -19.21757567425573 17.196062162323244
17.042206845530664 10.467243468752782 4.242759289749424
14.490368747492134 -13.785108398619982 22.666029243751098
-12.383385939886756 15.705150513886041 9.071631313074354
-8.80155285380779 17.95919450759493 11.694300716462733
-5.229997711641568 19.304070139124132 19.675493190346465
4.698446655862664 -19.440282894598344 3.530909300731142
7.877673949783283 18.383205736239418 21.44362374368345
-19.899214725601162 -2.0053062869342138 9.38281549142864
6.13327047628111 19.036359769262045 18.575208927133584
-19.846683564579244 -2.4716697771871043 16.97277304463497
15.25500099723665 -12.933868121111676 12.11233483117609
11.167400709341983 -16.591840205263193 5.129431919945274
-9.68386826776846 -17.49921985039639 13.717230931557221
11.803701479906927 -16.145359437722128 9.81820712313956
13.958216746479595 14.323693143121176 12.571923155368387
14.062168460779496 14.221653145139577 16.413690563219593
19.789600183751915 2.893393261768278 29.03346079183563
16.341732096101808 -11.530298872936298 9.226062782146185
-0.44634525118434554 19.995018777604216 3.4389071485274436
6.978711100395445 -18.742934438801665 6.403184900333159
-19.66775625382688 3.630339369818421 16.940678930332933
2.1609943230107493 -19.882909835733685 8.465719396632398
0.2185275843515633 -19.99880610673741 10.078125649937586
-15.97593014190241 12.032026267468584 27.939526643346035
-5.003254138891304 -19.36407622433012 16.1931376149753
13.312667258164856 14.925578396611147 11.347497441936655
17.939320753300503 8.841989081094926 3.304524095940302
19.855342520161624 -2.4011191988449427 0.7680099875859137
18.06834593662693 -8.575247816499367 20.63051609823397
10.393217101425433 -17.087452656339327 14.725628969260129
-3.1990909262477403 -19.742487615434875 15.820586825497134
-0.7318038181551056 -19.986607095045763 16.957331734320977
-19.89822673553015 2.015086296274445 0.8769814805659504
8.081058899710175 18.29471199717052 21.48555480948577
-14.899614648010198 13.341719654557275 13.975258021677034
15.036669026767894 -13.18706125637699 20.999072091922258
-4.550469287095644 -19.475451965672047 1.6530861373605488
19.765079030516763 3.056411444394642 2.8885124445771204
4.086371627719345 19.578088949643945 13.954772400720355
-0.4980594118618987 -19.99379745876845 27.02231370497114
-15.454627261591643 12.694664083986957 2.794806850490615
-15.746974375132183 -12.330158069908528 10.859858974880577
9.70527143842289 17.48735847137963 4.627087007524322
10.42944636649642 -17.06536400105121 11.639864613581427
-13.697269901499787 14.573427779539996 25.765462504133538
-18.7177188031303 7.046062929533234 24.281597119898198
-19.970556490556092 1.0848379867556 10.548042803546888
-16.896094159994412 -10.701495322458578 10.328219293343203
-14.225796883300909 -14.057976491482197 12.754758506472516
-5.593246507511624 19.201968479981655 3.3594125670433583
14.235953571895603 -14.047691123413584 6.276435697119352
7.534037306266105 18.52669106634508 10.993973378357554
17.521740831462928 -9.643059588898367 14.950502474431538
-19.227332455470716 -5.505423384881717 2.457760558437175
15.057982772508867 -13.162718367526754 20.432445813647707
19.85054540451645 2.440460436727242 26.03043547696873
18.597590652995507 -7.357283595432095 21.512957739145083
16.021868112194866 11.970787033250293 13.68751995622948
-18.677760438418062 7.151312117721135 6.61579348006255
-15.364371174177357 12.803753294331624 20.202176839836735
16.124288101833532 -11.832469446783696 23.74711080553005
18.478705533396088 7.6509765265642224 23.680693517735033
15.762197040627665 -12.31069228160742 12.83371834546646
3.9483802348569914 -19.606383999121068 21.502383173127107
11.781677942678744 -16.161437586272985 3.6680385641747595
-15.527004609328651 12.60603537445008 3.3904850457742084
12.086719945540189 -15.934591333262391 1.1498781598861652
18.484376927525496 -7.637264536544687 17.519327774471765
-18.27546667175589 8.124488779581128 0.29614339989494587
6.98524448504041 18.740500513172336 19.84461789310853
-11.531777511602002 -16.340688707117287 25.979757601699593
-17.494505536688678 9.692382371056627 5.46169339445373
14.767317947162564 -13.48800654831582 29.994253744822476
16.574867849609156 11.192575921922208 25.541062207942392
7.415781546771088 -18.574342089306136 19.370606671288023
-19.96446020970003 1.1917753711602845 23.11721873976817
-12.385415501608808 -15.703550007960246 2.0517533250209175
-6.772465246257518 18.81844080916998 2.5525914659011253
-10.424928646774381 -17.0681241707946 16.657739506365786
-18.956371821972667 -6.376203207796987 16.629619050121182
14.04868582176131 -14.234971959278413 26.744675605247256
19.946313559755854 -1.464436880135086 18.385954253094127
17.63524809049318 9.43387644538323 20.416541499317706
-15.675008528473377 -12.421517927865615 9.598858717898278
13.345844253840056 -14.895920285509195 28.99721324642634
-4.8071022278041315 19.41370052749966 22.019867851112323
-7.355553908151319 18.598274831399817 27.35074935884144
7.503859918478515 18.538934336251682 0.7329462770323314
5.221470495311083 19.30637837261551 0.18292371838420585
2.958822988549254 -19.779923319427517 21.707134444401948
-2.8603120873002226 19.79440867425052 4.830952338408357
-19.21911575320927 5.53403918171378 4.632878729737177
-2.525844734535962 19.839861601760656 10.634156969738505
-6.106411991173234 19.04499232328687 26.35082511141882
-19.706529778281453 3.4136028031548142 9.905005085987803
19.61538448246339 -3.9034205006806983 24.167617002958647
18.343566169831746 7.969540775540604 9.030603429406934
19.443474523885726 4.685221279620294 13.747775225732306
19.84205944804429 2.5085208510746844 8.769123578818702
-17.581737224402886 9.53323219962914 27.550551678666356
-5.118060131110146 -19.33404925240289 15.15260165301718
-12.810382392133114 15.35884445416796 23.893591301062447
-7.33090042504722 18.608006313359915 27.38441848600063
1.9038880551657724 19.909174022881942 1.0002455994479253
3.67774566528291 -19.65894673733801 8.781621019854164
11.17031302580749 16.58987965313418 28.559622901033148
10.721129175194736 -16.883642652247417 24.542003801043915
-12.349881591272833 15.731510565789302 20.417528929733628
17.410010729784005 -9.843349348103308 7.773639590419533
15.297511288290053 12.883561168583723 13.99384247550915
7.597590640742887 18.500719349681948 14.503247326562455
19.901721115554786 -1.9802769095964379 13.312831502117506
17.369321898170945 -9.914971346288363 17.48785388337122
7.698846639762493 18.458812540827694 25.395915625680576
-16.32400549061025 -11.555381635520583 21.455045940477333
18.783782651499415 6.868006210045936 14.287169252453728
18.37461751811501 7.897685171173954 15.935699737653996
-15.02199988970686 -13.20376913285169 16.925142156172164
19.953519703617463 -1.3627367454316588 13.774710948451405
-3.293211531661164 19.727005799353684 0.12721456767005757
11.89570801067886 -16.07769047234928 7.998208190946884
-2.9013831606767324 -19.788430350963704 6.423900320181123
-1.3145359330829698 -19.956753124710286 6.365053119723648
-9.805947871968138 -17.43110399063248 25.158928996489752
-17.843137721124954 9.034513615295944 28.30628136387556
3.6821696381979034 19.658118596537502 16.785444371926655
-5.671520429116232 -19.178995177592522 6.894419166926632
-4.223238022260045 -19.549021985954617 2.288070428138975
12.508153107005324 15.605963791182942 29.403582756678674
-15.09105524381306 -13.124787679356281 5.437333521194812
10.731217960649158 -16.877232032565082 27.224293573897945
4.715716943398494 -19.43610078461584 6.420272141281609
19.05531486603357 6.074123422875105 8.500159477558286
-2.031742036608147 19.89653297176871 20.40926749029872
-1.7787004043372878 -19.920748602188883 13.971227473432954
-0.8867613205016217 19.980331687949082 24.73217016451139
11.770237593448257 16.169771395841607 11.319217171026951
19.977998521273015 -0.9378566436365783 22.180813564880367
-16.237151832943194 11.677110102844345 22.8968510917254
-8.725404041716512 17.996314186766053 20.420420942308407
-3.3359168334274694 19.719829078378325 22.086646738416526
19.751255643227147 -3.1445032224324097 15.975796716346895
13.876880220771046 14.402506564427364 17.47124803842885
16.039276829122308 -11.947451560846783 19.22971903516241
-19.645848754678987 3.7470824261387943 4.042077812562555
-11.163384122865903 16.59454292607499 11.277117660469617
-2.4926885620172627 19.844054619275475 21.515665093571766
1.582978385437307 19.937256065748826 1.5937387316224183
-18.902556597844853 -6.5340151564923685 24.762713046337996
15.125907734986795 -13.084606038878919 21.454230082168003
-9.052924829225566 17.833803633448227 16.330593919513568
15.919948176718062 12.106000580315996 14.672391431520223
6.16835842514234 -19.025019167900346 1.9610069372458683
19.001125292216592 6.241573329657111 22.269644197490393
19.544681404110417 4.243280430494836 25.664023342896943
-19.878209507469688 2.203811874262801 6.207708280956014
-3.0832114089014198 -19.76091615811423 27.074372137707552
-17.75267016074347 -9.211009834097911 0.19319335140809302
-15.51782179666817 12.617337543509336 11.959875343925669
-18.035788126940446 -8.643514715676378 15.69111216080021
14.341844772987395 -13.939565578149633 1.0008329310891872
18.13396037516047 8.435607927832468 12.822048497254203
15.7996572810337 12.262578432037808 15.68407305544283
-5.8828929873902265 -19.1152182854111 23.146074699602007
10.198791657666323 -17.204204390889913 9.661985644821286
-15.237886525099606 12.954026951036804 11.864474802596263
12.036606500194804 15.972479580812372 13.01258926183722
19.76896105045211 3.0312009147708214 1.9906793601086492
-19.919680122577628 -1.7906266540476166 23.900992653764067
4.688145989617994 -19.442769534714664 11.029938217241758
-15.71375940175966 -12.372459960073014 26.79490174266233
19.94946987234186 1.4207926704921914 14.026185706332962
2.8614506797432075 -19.794244113059662 18.478999924213078
19.998268886800872 0.2631378559085484 11.03493412643467
-16.12360781018668 11.833396434806327 13.94802235067237
-0.27200406647484154 -19.998150259157 13.503617762655619
-17.7713549732634 9.174908305496368 2.200482299173503
-13.067825123779816 15.140407740028309 13.18856903584937
-17.33608921468649 9.972963989728969 22.971030901545006
18.430587736240284 7.766172525559114 26.018662067611874
8.259197888563033 18.214984222819297 11.761225691139067
15.947066456690138 12.07025564873869 15.514716142239264
19.231387339921316 -5.4912422075441345 3.637612991374979
-19.987610753838602 0.7038581909984114 5.765940601219437
19.976171328849965 0.9760015575974166 25.324978634267662
17.99101709945132 -8.736320949189665 2.76514184203404
9.463177931366053 -17.619542089376402 26.78675319218891
-0.958681556730723 19.977010028349696 11.734506121319615
-18.58288913097905 -7.394337803058544 16.914559492587685
10.809534689314855 -16.82717919915572 29.109241447093996
-10.013347293130739 17.312795152347622 24.841980569715496
-17.59522173722629 -9.508321198710082 27.78731399056091
-19.944391197241544 -1.4903891342176656 7.605939918772648
-7.642599445446624 18.482171780298412 25.178898883434382
14.092351219520292 -14.191745386163214 21.669738523775727
3.8981000569552933 19.616442489553634 19.176354182315286
19.75226317791295 -3.1381681520377724 13.174147495673372
19.998126244502025 -0.2737639657794386 8.299854596774338
-1.921589108486927 -19.90747335294322 23.814667499774053
-10.772506754807207 -16.85090793451893 15.126920261953034
19.995911102067996 -0.4043997999429116 25.852157887063292
6.146670528646524 -19.03203723757045 21.071138984007867
5.579970584405335 19.20583058024753 29.064857715544616
11.126239663269713 -16.61947023690839 3.701156824444396
-10.541580277136724 16.996325639992957 23.7912129022194
-11.831164499547747 -16.125245628660704 25.088255417420022
-7.992273982378554 18.33367275235911 21.59501166353633
-19.380198760804966 4.940434797838506 28.4926793509774
-19.160292508941385 5.734386712788442 22.584926800584057
17.201212780974966 10.203836477699133 20.353803735759268
-7.661045405773371 -18.474533371392056 4.070488583988748
-13.87931366863919 14.400161529910882 21.66997938414167
8.911050203667722 -17.90511614784203 17.336630582760897
-10.928554493141416 16.750125273872985 15.126490246103835
19.43398295076418 -4.724437180173657 23.714292742360087
-11.793588290047596 -16.15274822576184 10.295395722211891
-10.170817769560795 -17.220756832914933 16.550462395893845
-15.681599277371516 12.413196369345856 12.456828515282737
18.596295139375027 -7.360557525708005 29.307186972186468
13.197467531535516 -15.027536416660778 22.707271273771564
8.436140091049936 18.13371281244357 18.268874575033404
18.944991170579463 6.4099383418770985 18.530087442838116
-9.932368928187245 -17.359379236435288 26.82609207131161
16.227736259017384 11.690191440167798 24.409385053344515
-6.454557867485096 -18.929835782047512 11.348310484282912
-14.609544845315884 13.658740769657506 2.1538676600037707
-16.70541758891524 -10.99677330765536 21.29514680536987
-5.162400335419993 19.322257186386263 13.108093287965927
19.53827923184685 -4.2726624788745164 28.032020579243753
12.226907710263056 -15.827277967000828 27.26058947533204
3.1750250828266413 -19.74637221677495 16.418589260306447
-19.934356123479436 -1.6190879970829017 17.780313820689106
17.708795180457717 -9.295083284005447 8.6550538082815
-11.559426570069402 16.321141423661935 16.4376110746288
-18.799856200778738 -6.823885024679214 0.32470861324343403
19.934495491627292 -1.6173711677568392 10.098627348716153
-18.698435653072167 -7.097077153865499 10.499971686015533
2.8096061142822166 -19.801669462007187 19.577154609802857
19.000359085057077 6.24390539957878 24.824334860120764
9.889448089318536 -17.383866557491572 16.817526795122763
4.346654400437313 -19.521951632025907 27.361751075570396
4.26265231878292 -19.540465583224332 25.1369716503534
-11.37075868113068 16.453140946806823 0.3508142071061149
7.810034519589929 18.412043906172222 9.722384115410218
19.367977354334467 4.988131233436756 20.19371373017676
14.70237960592359 -13.55876225631684 15.052915291818701
-11.35110169833985 -16.466708542812864 25.4970479938752
-18.102062436774705 8.503842398299147 26.899391639630213
19.988178946634044 0.6875335608794202 13.904208548059792
7.886270834616083 -18.37951937138411 1.2876315145740824
-13.059559172825296 -15.147538222809496 8.141078544802511
7.6299891536760605 -18.487381250863674 10.676408338104926
-19.573866254090266 -4.106550847972818 17.536240263945906
-14.79070798552046 -13.462353333910876 3.4235647632492294
-11.737590887910113 -16.193485114330684 2.1410369646841474
-13.198402136683951 15.02671557721036 16.777317856089752
16.912745746639683 10.675159544921158 27.68139399927633
-7.259897770341949 -18.63582261034334 27.48780248735902
-12.787224387379341 -15.378130330661495 9.184028131866453
-16.011218055055423 -11.985028009707246 21.473867582305285
-19.99997383713833 -0.03234986525917812 29.157121059177552
19.166100509635573 -5.714944553934628 27.627588865497874
-0.7852108248774834 19.98458015472167 3.327373897554131
-3.7092796743472496 -19.65302125113272 2.3454337595351014
17.54328491366347 -9.60380937118328 13.598571619522577
1.9504416548974957 19.90466722532283 25.29420467780945
7.376548509489915 -18.589957829084554 27.273305494589554
-6.958125581815041 -18.750586347836993 10.256406923617842
-0.7140574526389599 19.987248984148138 10.967935563814933
14.98653949702015 -13.244003696173415 9.616669145121373
15.26562617642609 -12.921325684372118 15.617829258635165
-17.115777038467993 -10.346505514880464 8.962921625815856
-6.866164753935797 -18.784455849766044 26.606301515861
19.74590932649231 -3.177902589750688 24.706414999494303
19.715274566454152 3.3627293630808386 21.84876088880711
-18.669110391256897 -7.173863477866291 1.8214988311853209
18.717833054138463 -7.045759416656342 29.922407179222937
15.580793908239489 -12.539492062638232 23.634920998379048
-5.425531275704911 19.250028840922496 28.442023767281235
-5.479760813244773 -19.234661978564297 10.829054984018056
-1.034963018681426 -19.973203337220642 3.810091794596371
0.8898782197329833 -19.980193111029855 14.244852381071455
-6.3123516846274095 18.977729479829286 22.293555498187853
19.361133832657384 5.014628272756573 16.91466965341276
18.2904306312776 8.09074454685241 20.555556253481402
-18.540235003778733 -7.500645705848119 27.801362790053144
9.261784013291978 -17.726233578826868 15.195669827214683
-8.435518709288734 18.134001877832695 1.8111289529100039
13.213814887130656 15.013164094508667 5.941811574294463
-19.678215194914003 3.5732123842077588 5.3289974998650464
-19.999373892831766 0.15825262942243154 26.45173288455223
-7.725608896640765 -18.447627684234767 22.260676529295253
-8.49868775536662 -18.10448304804038 26.260477651556773
15.642200570960817 -12.462807119498923 21.851600154035292
-14.760472064925317 -13.495497931553299 26.260105386553132
-19.45773051430146 -4.625659221432311 20.194926738842895
-11.731905028314266 16.19760489722522 24.452227335327507
16.15732461418789 11.78731781669427 6.92344635938542
19.98109526283366 0.8693860463374896 12.648453293825012
-18.35326587496501 -7.947177594771916 15.49751926687655
19.518216019239155 -4.3633981512481785 5.486449580013133
9.551762157054673 17.571677202107324 7.332945798050959
9.36521010268709 17.671809181080686 10.085874855689028
-1.245317582713369 19.961191951338602 17.905572408716644
1.1200100179020864 19.968614813246287 16.722971788463312
5.367555662428558 19.26627484000815 13.645850305091157
7.369719410579903 -18.592666183453133 4.714380885182185
19.86602139012374 -2.311102361892691 16.45436208222251
-18.30627106283716 -8.054839525026608 0.754869148388444
-19.982518770844177 -0.8360284521833845 27.252665482862852
-19.98555354449396 -0.7600325783575556 2.809025674287726
19.97345047225991 -1.0301826207913116 28.148905072834598
6.264055348108241 18.9937255586111 5.329236936836773
-17.979397814184388 -8.76020857281958 6.2022638297894614
-2.693734915890965 -19.817764561193826 16.54783936343146
-5.964176576045434 19.09001303744319 6.074457415942267
-4.677800313275453 19.445261228101824 19.012446453692306
2.135306093993911 19.885684999138263 17.079976389853805
-19.629262964629582 3.8330191057991705 14.58562286779089
-9.726339818160469 17.47564916510017 26.760551435200174
-0.07992280597679463 -19.99984030798958 25.88715974998072
2.1792990750302095 -19.880911838785778 9.47905761079632
-19.985721151653465 -0.75561236646268 3.8714218525360233
-17.69892428080433 9.313864896075899 27.87241141098051
-18.643540869974412 7.24005413167566 12.667131436637893
15.90929038516283 -12.120003277250609 24.00475516626922
19.423143113132554 -4.7688060986762055 5.069503537560726
-0.21488202584076768 -19.998845609558835 21.368533749397233
-12.475535678042629 15.632050714665858 26.34923708904459
-6.932904315621457 -18.759926379131592 1.2745714388836615
-18.921940673939318 6.4776663337903395 17.082589020048367
-18.140464220406155 -8.421612545597434 11.615092137947155
4.725763916841315 -19.43366037066308 9.175166872074554
-13.428456827294486 14.821489373119292 24.03140963224702
17.35223727702794 9.944840948035422 6.584312094636219
13.731857900912921 14.540841742799326 13.04589562374028
5.218512120767475 -19.307178231046684 8.797949438531099
-18.58796899868459 -7.381558677131848 16.873896572747988
-1.6318358055351212 -19.933316630801144 20.141547275677787
-14.829116148874476 -13.420034062668776 22.967255785931354
15.688590984216395 -12.404358626304063 26.147707946793854
-12.379045130227858 15.70857223504994 3.8243431881394887
11.174332878991013 16.587172293959583 22.739399476754258
-17.876490146371026 8.96833875624129 1.7436414379698906
17.386305234826946 9.885160103985625 2.9378036033068478
11.84007771058704 16.118702175028236 14.920176489646243
-18.731986830066663 -7.008043193232263 24.62734250500555
15.87508563515184 -12.16477110662571 21.669320898886653
-12.614270076561375 15.520315410312005 1.6056108826545712
-7.472474076004025 -18.55160723989832 14.156659708487767
-18.780100393969825 -6.878068710940188 25.511423457843254
-19.482807090729757 -4.5188746237764015 9.953268909046367
-14.325933913686377 -13.955916935145842 24.936731203331902
7.526647471039604 18.52969448875758 27.655926176750768
-0.8238369511355358 19.983025113279112 3.652858020495967
3.670463828765173 19.660307609031108 22.87818313232568
3.092891932865336 19.759403318208182 2.916601943427881
19.783464114373977 -2.935054962905652 3.667331257024223
-19.75666552732684 -3.1103323361556123 21.14531174825657
-18.914969129515164 -6.497995293126053 4.826948457571186
9.47066012897781 17.615521471741616 8.626016033773881
9.535231076454739 -17.580653239246026 20.081963126762943
7.75272837552074 -18.436246980754937 5.831605223554297
19.09957912173427 -5.933470938043971 10.31688254928407
2.556718712884556 -19.835906569229095 8.948516315496347
18.116447868297247 8.47315269750688 6.213297055956408
-18.10692678202603 8.49347999999697 16.187073449853223
19.507421904168922 4.4114046122239365 18.640850000074416
16.964022866095842 10.593485177153807 10.024021028762983
19.100954591510146 5.929041549278225 6.748327854049782
9.352004265598119 17.67880132294706 29.677966456776048
-16.10694924719045 -11.85606114813984 26.036326682556236
12.748678988195545 -15.410100066383132 16.574640517937837
-12.255477865246196 -15.805165683866162 6.417417978212853
-16.507492985121097 -11.291708256334726 15.595428582742736
-18.721522209855483 -7.035950976654681 25.80640506660419
-0.6364517082477843 19.98987066549127 0.9937004273315087
-3.37267285875749 19.71357597666645 21.530350263531997
16.912237912195693 -10.675964068939663 3.0761652633703362
15.035359474405183 -13.188554336067856 4.428069354667647
-18.402263728771764 7.833051107756868 28.769533105027357
14.861123022448826 13.384581521722726 21.902101904344196
15.40684242361227 -12.752615674205083 3.4679399251670997
-19.997855044713376 -0.29290546364263104 8.349692181042789
-5.420774404935776 -19.25136890849046 3.3132186813547158
-3.4747743535755564 -19.695835681476773 21.926284656865747
-1.3821273442440147 19.95218594551216 22.34963689937899
19.814817204314934 -2.715330396026399 7.023580230572931
-16.01814066286524 -11.97577428413976 13.13178109895037
2.3612991695861894 -19.860117477792308 4.838679634652463
4.396900915217449 19.51069610090219 12.707520810753843
-5.844488577859231 -19.126995406055624 4.153211720722729
15.829208430000708 -12.224408389758356 18.451323622389506
19.84774571194222 2.4631260938245036 7.678364947403061
16.878328754510616 10.729492926259852 1.5102641452223586
-19.90040060617758 -1.9935033768837616 7.53179946284654
-16.86316860237423 10.753303896379938 6.402971670092001
18.25883583823081 8.161795993072744 27.9043779095434
9.27422044461765 17.719730109249294 4.049548786426669
-14.74783697716439 -13.509304367545454 29.920928481592625
-14.695614090930661 13.566094739844631 5.014519811247419
17.149992887668983 10.289691149539099 21.111346687598125
14.18690494753344 -14.09722412426117 20.161102232296308
