26.21105566380618 93.95469826173255 0.0
84.3546444487175 72.74570341037406 0.0
24.597151011595983 53.39171748651577 0.0
26.518253517580977 77.52475255705706 0.0
48.81799143545956 64.83959560362493 0.0
94.1668274712692 56.04485070966778 0.0
32.05347050784041 27.396041322727115 0.0
63.368807441562375 16.199083130453644 0.0
35.816140558014936 45.10141436284903 0.0
97.69157796724599 29.956333197108716 0.0
38.290199321171656 43.232038759309496 0.0
29.150068629893905 64.96992632596569 0.0
37.73703918986195 21.91557600500724 0.0
27.056508939503807 87.14139309513739 0.0
75.36700499080105 94.22317785636149 0.0
18.574854140856566 84.65945866309974 0.0
79.6469500727386 53.9928789927464 0.0
57.561641925127944 67.71271640872425 0.0
19.631043211710264 49.378903514367906 0.0
64.24289904193058 99.15095014272029 0.0
93.66632191860502 70.34999586270678 0.0
84.46617733940927 68.98910977140878 0.0
18.465878074581717 99.39429567275472 0.0
39.86660838842597 92.6658849101464 0.0
59.932227171223715 44.2255092548757 0.0
74.15814947317693 71.93190932803034 0.0
57.33819256434125 14.105302216141377 0.0
65.84666259681688 73.91652021291495 0.0
44.581649793004345 19.404452878841994 0.0
22.57373558484333 85.04805262117006 0.0
92.94277845387288 30.301668919585925 0.0
81.81440180732336 35.259806460509 0.0
59.02246072955343 80.57498966840582 0.0
81.75334515632399 94.55627367975606 0.0
30.512021313996005 15.262889246754963 0.0
35.91698557607032 79.69654075615686 0.0
94.99359169885739 28.209914902937957 0.0
39.08826938395939 43.17425213914798 0.0
11.161282301401627 37.570131943283755 0.0
59.13314934451663 22.628367465327802 0.0
96.12187202699296 80.42215926519397 0.0
47.138298744571415 80.94423767167245 0.0
61.12982880759706 73.36924152787861 0.0
69.29421850729216 27.948720088488653 0.0
83.72813178837025 64.87932013832811 0.0
45.595815054420534 92.0061388627748 0.0
72.91268529204892 35.391917093769024 0.0
90.827333204916 33.94794458610059 0.0
53.64941723179207 87.26844869717793 0.0
26.34871215275642 45.06065057290178 0.0
83.99047595749882 78.27972622136625 0.0
72.23788916076154 31.50334578175403 0.0
50.22062334226101 78.18100193218723 0.0
31.442976614874674 92.12387727720721 0.0
59.307442023319965 30.350216209269373 0.0
36.46683870424468 72.1904681382596 0.0
48.954557599286666 71.46701734691551 0.0
96.82516234894797 33.90205472633949 0.0
50.763540550304256 77.49337741688348 0.0
89.31109395197186 14.734854398463787 0.0
50.394640462275134 19.03919656896633 0.0
87.79521716706412 35.07339156244757 0.0
87.09930598057005 31.953754201140175 0.0
34.85002693699518 16.205677616443708 0.0
32.9575359272275 83.76748381302056 0.0
19.112245285245237 70.27264012746414 0.0
49.197451027306684 15.319370596242099 0.0
55.78943631360224 39.55850285263473 0.0
19.80101553460583 32.274746670296935 0.0
12.963581074926942 69.85921626809767 0.0
61.572411410550636 93.51396597417981 0.0
72.14745412443318 83.82813769550297 0.0
96.77818399873553 96.35056526957547 0.0
35.82864968218769 18.310115736286328 0.0
86.53131243859849 78.11760866186226 0.0
73.16725278428143 61.14658821826229 0.0
66.9691897473938 64.72845861715959 0.0
48.92593020523139 54.134885636403176 0.0
54.162470407843024 95.84900955042545 0.0
48.967314967611536 27.898475219326027 0.0
67.89081063199558 76.43655799781243 0.0
65.66799775813894 62.09096021170087 0.0
74.89497152239215 78.60352673377898 0.0
33.31738509750596 55.29427872482581 0.0
87.88910687226758 84.52627339326334 0.0
83.11003229093531 64.62890581750602 0.0
54.532031955814865 87.37110923303169 0.0
82.75713803190122 61.030182650068575 0.0
69.74688407380162 40.00047564556941 0.0
27.505730854528906 86.71244746809239 0.0
35.837560645861124 36.405129126976995 0.0
25.426034959262935 90.88701500160165 0.0
79.65160666471083 13.729626136866674 0.0
95.45986320261729 33.196108217517505 0.0
74.75584538316305 64.92394010768493 0.0
44.428071844494596 28.75081316968802 0.0
55.49468665760022 99.7303826392414 0.0
68.88551990837581 20.258991279355346 0.0
58.42347639992328 75.2988908348773 0.0
27.39520821717339 38.17355319692493 0.0
17.551277961443688 89.00839221880489 0.0
45.07744813326781 68.00722323489562 0.0
94.49572786198729 97.41858141926902 0.0
10.771256188458402 73.87271210704752 0.0
28.843065790619875 73.88805685966898 0.0
80.64944623855351 81.30769468565762 0.0
63.25973615581919 15.055494950640385 0.0
58.90367829787421 66.85361802151944 0.0
13.989725047631767 94.5359141477572 0.0
70.5217725837175 84.13597244045042 0.0
62.128233514747215 23.64590482812317 0.0
55.830428507792774 29.504156694496626 0.0
11.28492919692897 28.399179541305806 0.0
58.20511456096264 78.38136335268268 0.0
86.10522040637373 72.8763772705039 0.0
44.687635355438225 38.75794468820834 0.0
97.72032641383569 33.25814409147874 0.0
99.75885091500786 88.87024161989085 0.0
14.280159923149855 93.31564113970417 0.0
25.68770218180602 52.42276160212093 0.0
82.21140558865774 69.95438671435647 0.0
27.508660120946015 18.900914110690014 0.0
17.578794107058236 81.17969570455108 0.0
68.99118700725452 35.52856463436778 0.0
61.842551477107 41.70004334713783 0.0
88.57422225647029 49.34662984775416 0.0
88.58075375349328 93.9148983105608 0.0
15.358637935713924 78.8215806481831 0.0
49.222635292370704 98.86007667775777 0.0
28.298526127723267 77.61254002030772 0.0
66.3343688605456 40.93052315860612 0.0
12.674835454457577 72.21411028025504 0.0
45.995028675546955 63.66137229711808 0.0
21.32226241192457 72.33746427177917 0.0
87.26175288899611 44.339304757924936 0.0
56.6394002470852 86.83413143041747 0.0
25.582678947977143 64.72865437113074 0.0
21.07319031948652 79.35752653865393 0.0
40.74987915261194 45.6048331117393 0.0
23.05420329217768 71.48548030057165 0.0
32.136902749809735 80.05508963656852 0.0
38.88368250839691 48.53941829928009 0.0
91.75428617759366 12.045390120020496 0.0
40.92655763156489 54.8944595526925 0.0
28.07061199780222 55.03516187929812 0.0
43.79940348842559 12.557541553367585 0.0
52.87098405503647 93.99995681732814 0.0
61.37241570650049 50.43271837064199 0.0
21.646096457674954 80.31993768304712 0.0
23.928630895645625 99.6326478131777 0.0
21.88666144013861 85.160900441799 0.0
61.65915232192874 46.73722967029578 0.0
57.55576236612328 82.92311811322745 0.0
86.6915692654111 32.62218230747409 0.0
12.059580993990897 25.024994656376577 0.0
69.42951471532007 79.03208524628756 0.0
70.83551267442304 54.51915187195787 0.0
20.552958958321867 10.043222155397011 0.0
93.27249192267091 34.82219914067763 0.0
42.09802571938299 34.33607645122291 0.0
16.853225501444896 26.520779358843992 0.0
50.91785302708164 98.19283190523979 0.0
31.226854071354058 16.798319403470025 0.0
19.55507905843983 80.18246008532968 0.0
89.09652569883147 64.255154595675 0.0
69.34043588494767 38.584118567988696 0.0
66.97670329594172 33.252886241353565 0.0
70.52500727726016 70.82683789073371 0.0
42.25296590620055 83.21618132366518 0.0
76.0573724977283 14.059805603461204 0.0
54.713110897249564 83.82582026259723 0.0
21.00232143766355 56.60502135559408 0.0
38.168856743012356 87.09622326772673 0.0
30.525640593331353 47.329415636603 0.0
35.87729328681456 75.72469874639793 0.0
56.26404546217931 23.75217442963244 0.0
41.875677624972155 34.93775709226546 0.0
51.56117594585938 30.276680540572844 0.0
73.38155587864425 21.486651455047593 0.0
59.036666488856476 25.460134035858214 0.0
19.252802158963412 81.74625655399397 0.0
52.71096338392693 72.77949802275347 0.0
28.790930229820237 77.74417283418195 0.0
62.12800680048234 20.61182132720159 0.0
56.8724598844112 23.681395084573218 0.0
74.31950770981148 26.45325521444934 0.0
11.32406769710694 60.644496581987475 0.0
86.55171283971603 88.1337397320499 0.0
76.61574621401188 22.66137314797517 0.0
13.394915369555147 64.43609983716395 0.0
72.68068427362839 23.22580948466446 0.0
46.49705549271575 14.11696156348562 0.0
98.26700770714508 22.092536440744066 0.0
65.08276821225415 51.94848827980782 0.0
34.131772201737256 51.410213927514725 0.0
64.61113316672002 77.92942837724239 0.0
84.04501523344116 48.542069491745295 0.0
46.80462897238105 83.77352944385737 0.0
78.22401606983318 78.60267887744449 0.0
47.55372783487218 17.8891022366361 0.0
79.96693285986436 16.520074807790408 0.0
79.71940973040071 69.11194754927365 0.0
70.12048825829218 53.77720744310998 0.0
98.44928842377276 14.591366599341296 0.0
19.04896182373959 55.209650198706385 0.0
33.2509313602536 72.7940869355869 0.0
96.95894359486961 13.511420586086857 0.0
83.37396931422123 59.02488134052413 0.0
52.475917353442185 48.0163894194437 0.0
96.54452110302363 28.169654715265697 0.0
84.5585701176266 74.54107311623765 0.0
15.88270817045792 48.8047024987652 0.0
25.40463235138253 17.51242707638442 0.0
47.41076250716219 37.155343957884796 0.0
16.16788248746044 38.86411644096877 0.0
94.9222613109306 20.681625584581166 0.0
53.92885618967693 41.260725258026156 0.0
40.7192381414236 43.81166146089846 0.0
12.235698979110037 19.66821680833923 0.0
85.1165741631718 55.933668737931235 0.0
47.296610781749294 75.7860806785422 0.0
60.46938222891531 23.752917152852298 0.0
66.2122429798907 45.50641408980586 0.0
48.688494723031205 56.81519545647881 0.0
45.97469693511504 68.78513242544318 0.0
50.412734276320464 51.59983271564729 0.0
62.90423631250776 73.87260350128416 0.0
40.031845519147005 95.25098284637632 0.0
73.43365224496254 64.54923932771342 0.0
82.3151176845756 49.8837392838808 0.0
27.529055673243242 97.96148842192048 0.0
24.249546795398153 45.11427341051241 0.0
55.945107723611365 60.23820596313936 0.0
12.919809879531737 22.965016075596317 0.0
70.50673849709432 82.85881068343511 0.0
37.68113788511104 90.09185279798376 0.0
97.35818635880918 12.140680404828661 0.0
20.729191519098265 67.79924577686255 0.0
32.5706137073134 35.842274417260775 0.0
28.891647197628508 21.487348541260328 0.0
32.33538507242112 99.99962917785213 0.0
58.6237057703064 21.847116245900878 0.0
98.48113842836506 73.19973963991556 0.0
23.36350191571876 61.84768765220399 0.0
88.68812045816159 45.65318734607933 0.0
52.773274059321714 84.22029274911571 0.0
18.819970801559663 76.96792390593185 0.0
88.89363722663535 21.516197653456224 0.0
34.390796533835896 34.78946061170399 0.0
71.96197402099295 58.05428449521275 0.0
14.902296193483679 53.48280016901691 0.0
35.6270183362246 77.72425990509005 0.0
19.245392044527566 49.92558375409538 0.0
20.361417682842244 61.73362070226021 0.0
26.86664566735943 70.3277328236044 0.0
69.76098121217879 15.401524518634368 0.0
62.61675675073726 73.72094994923131 0.0
20.754155265987325 18.178621145233166 0.0
11.724095890101143 91.73932066407171 0.0
24.395954179174723 41.5820557501136 0.0
81.27625794086713 26.858503437163545 0.0
82.59160605480425 36.57873399388391 0.0
67.28157551915872 31.031653732317707 0.0
43.386289211487444 95.1065481669518 0.0
43.75619393555788 94.55290172658222 0.0
73.38111221066885 30.85094494773633 0.0
60.76878366638635 58.5448271476971 0.0
40.27627776863689 26.028951296778047 0.0
11.088815744433855 79.9241404232626 0.0
46.798995143478486 88.13949078963273 0.0
18.938972175756568 92.24331725591679 0.0
41.07141318786299 27.927465351619475 0.0
25.0570123781309 57.158525584852946 0.0
60.99238830496294 41.646578449233616 0.0
82.3794614116315 21.438012607288346 0.0
71.04757159188989 63.94347533991025 0.0
69.92950126212205 33.81018914222035 0.0
57.106222668536 95.93864466420366 0.0
63.57349476624334 80.86155043352213 0.0
64.58515693884446 81.86029890197025 0.0
47.72316522546372 10.08012499723031 0.0
36.02188915761856 43.05349966644598 0.0
25.893918185997954 76.14677665211329 0.0
40.92321713849654 55.44983987507111 0.0
76.10779397993988 88.14819185971993 0.0
92.15110452303388 90.74781129749199 0.0
47.47172495844614 42.90451924638747 0.0
81.76810672048913 13.220170261911 0.0
71.09984471546659 11.286600074283985 0.0
60.03703273427799 79.4680884620306 0.0
79.1558970176062 86.72853345984609 0.0
23.171835858789017 48.51356024318179 0.0
76.81076685587958 90.27254856682053 0.0
12.882047440471688 17.483112920798384 0.0
40.32473873165698 42.34901205057004 0.0
57.23679329797012 42.537009091151475 0.0
39.74042084769165 11.611258945446387 0.0
85.66203901109357 78.04697913004169 0.0
63.20896877729651 62.40005821337182 0.0
67.36927638144195 61.37445104326607 0.0
12.99251639932421 68.9124700006813 0.0
48.298220648252986 74.48315218804962 0.0
12.778949139988107 67.26762448703849 0.0
32.697271361354055 92.55833815514752 0.0
19.146905633888615 92.79754336235816 0.0
72.55130574521102 96.33816033080622 0.0
31.78755550633139 11.351655203596247 0.0
91.49676591580072 69.50798750030506 0.0
34.70092783507191 92.02011272571997 0.0
66.7670656219556 91.36396750215197 0.0
69.274762240768 27.6869882297612 0.0
66.04511066787795 65.36761291867803 0.0
14.171576037398667 80.6829984870407 0.0
93.97027592351542 18.816818367931305 0.0
88.36430256995091 24.937231376974893 0.0
63.067846744822766 19.2896275139601 0.0
66.42787870312385 31.414026972260245 0.0
19.418515098932843 23.171684730529332 0.0
99.69273296378793 62.937977005907236 0.0
52.78630361838778 55.81081723764416 0.0
55.75487245697508 32.96663004311813 0.0
58.335576019500245 13.528990130466907 0.0
96.62743717921043 87.77147533702767 0.0
55.921772266623705 46.55594299781062 0.0
85.4011313273876 60.5108708575613 0.0
97.563219873465 69.71792024861409 0.0
28.515847307911795 16.837581240632822 0.0
99.22380674015268 23.142735720277365 0.0
52.18875985343932 26.030640202619516 0.0
61.57207263946818 43.20275896391575 0.0
98.07285521221553 52.51210511321389 0.0
76.59792953668209 39.92097198745216 0.0
19.367307507316326 82.25934609117368 0.0
21.76147256498043 89.94093423598201 0.0
23.908061388158963 60.10310525256832 0.0
48.70136278239768 88.53064186610618 0.0
59.659442068547534 34.2218671453267 0.0
67.84386646637904 43.25336828433973 0.0
86.59952084982208 19.862377115134947 0.0
57.62028352458223 16.45747459756937 0.0
37.428604718133954 94.76588746359228 0.0
39.18159600722748 12.012524847875612 0.0
25.977073697785855 45.74586268087528 0.0
25.771611177992018 55.94898159689837 0.0
39.68592179234971 11.72750483790942 0.0
17.03855515482932 71.33088704540975 0.0
21.446387417070177 81.19417295903527 0.0
79.93621380820902 59.94690546983446 0.0
24.466809885523823 47.584708869653355 0.0
56.148097017445984 50.05640128596817 0.0
50.89976058766743 66.72501235599373 0.0
80.19099564930065 36.53496610826465 0.0
74.67367207987506 24.73988459208053 0.0
94.98253743569546 30.631313373515205 0.0
94.16536628867937 98.67562931534398 0.0
92.27500559652655 69.54413912011478 0.0
48.04035203271777 95.29444028772906 0.0
81.77827820193892 60.615948278771384 0.0
89.8840834578247 10.085788820428814 0.0
21.41066238136215 97.85542302512134 0.0
65.70071278645531 48.734730922209366 0.0
80.85621989853854 76.9468841757001 0.0
72.53915112583124 17.83868923513896 0.0
68.80784097326072 44.39505980743151 0.0
13.300965040581993 21.46624751238089 0.0
21.55689855276603 48.53872738449135 0.0
101.74054405571056 0.0 28.51351445455559
192.60413241911255 0.0 12.311248799413477
150.22743189580586 0.0 29.936800321860304
189.92681877814047 0.0 24.690293395867183
56.08478588183433 0.0 40.05813976941214
62.93062811019436 0.0 15.802076228984273
179.03183588645874 0.0 45.83094888713723
124.43670921175912 0.0 12.672297470627667
163.76546349170155 0.0 48.0787991208211
172.12127110823565 0.0 31.95637577175795
193.5396278592558 0.0 29.985953141671565
99.6610607796674 0.0 18.18386151039124
163.75418362092282 0.0 49.37824223173804
149.704830839146 0.0 42.18270682950266
52.09989602056234 0.0 16.70943916118219
146.09966815494087 0.0 19.74594299675453
186.73462100025114 0.0 17.50391633981014
44.65075391709972 0.0 44.98002490526751
83.61098417161674 0.0 35.57425684492386
12.99959236256877 0.0 29.854787834245577
168.9427374700291 0.0 48.17566567105875
43.19772020627083 0.0 24.931465193055548
126.73566321914993 0.0 20.11081986134294
156.98282424524203 0.0 15.364391784925493
187.26382061085343 0.0 43.072149079702726
184.05646570447522 0.0 10.785676774588136
109.05603296009892 0.0 27.757910464298433
57.55644536341441 0.0 45.8291528124088
86.57546994889827 0.0 16.90856024963832
112.12687316714033 0.0 14.227683719455332
125.4339189874628 0.0 11.792804794636282
104.5052070682483 0.0 39.938649186081626
37.04785865892836 0.0 30.14452568632371
117.76175351990538 0.0 17.698019895379026
102.72916006116394 0.0 21.880012758812978
12.426122730998479 0.0 30.273031955218777
115.88579919844165 0.0 13.33424129174309
110.644895879124 0.0 41.41130249153109
117.19810166118971 0.0 20.352104820932556
144.10741415974965 0.0 33.10916527845407
131.35070751878982 0.0 23.540894829519956
31.21635967491121 0.0 45.953586929509164
114.01455055198512 0.0 30.4752360106743
24.808832373257594 0.0 22.988698867028848
172.3522835004548 0.0 17.63135969002892
146.7617664444664 0.0 45.968916439052975
130.3884203014377 0.0 18.662865216668955
73.16937029512415 0.0 14.803505029251127
137.14033816297916 0.0 38.73226793715098
151.53955891449496 0.0 25.510121155816023
199.14395032212678 0.0 40.371199160093994
127.67443350590679 0.0 11.983390286946506
41.1613305445769 0.0 16.99383469194973
165.99484607507497 0.0 26.512803835824794
180.2086341066973 0.0 45.09449890366045
143.04931237760442 0.0 30.151083915225158
95.50639878318903 0.0 33.354988135501365
17.97329023348577 0.0 11.147831685976879
163.44075374676777 0.0 41.11468081462009
160.378593900607 0.0 39.714701998201946
42.229732109590294 0.0 45.166742687129215
129.946188107636 0.0 47.12499034890722
54.55820303833357 0.0 40.53086101147874
122.53174142527976 0.0 24.685606222573803
186.990281147482 0.0 46.08104402922991
182.85526540597405 0.0 21.963372729731717
14.210776263780984 0.0 17.165891330196605
10.676101019548227 0.0 18.588833065530746
45.06871800615088 0.0 25.768698495610003
175.72095138857074 0.0 44.10199290025594
98.17889908451679 0.0 48.09396681481827
34.97580597573554 0.0 17.830024862126802
58.58598450530107 0.0 13.586180236098464
186.53957297855416 0.0 11.67326580883175
185.40738725317058 0.0 36.4666108338409
125.31833287636306 0.0 32.64385823580259
74.77754112248303 0.0 16.18296822348136
14.127838097089679 0.0 39.94885005649979
48.49501334360924 0.0 42.145962349782465
119.82749239076077 0.0 43.41360277463999
73.87743751516322 0.0 10.687962169144827
39.741736935158706 0.0 46.13469580881103
138.18957771799344 0.0 39.96421892186632
35.18500237084615 0.0 31.286004872837978
131.4866136533331 0.0 31.143661850637
157.5076383506265 0.0 36.72102668624409
11.434775567135114 0.0 29.566291024135687
89.29382107388577 0.0 25.252250266842786
165.62342006370184 0.0 44.576382216316176
182.79528271454424 0.0 22.410393262038866
26.56835186329224 0.0 20.139450022695833
29.813819261067128 0.0 22.91190635961398
71.29913982600289 0.0 15.398343916151846
36.479100216053645 0.0 41.62697406891877
19.68143674528936 0.0 21.463688829433103
20.623611490454767 0.0 33.61881999732921
134.2794176270242 0.0 36.41616976639912
141.52782451478623 0.0 33.644908860222955
29.920831680015294 0.0 12.183554149787565
126.03836091955681 0.0 48.711254032698285
120.17579027542699 0.0 29.8585355709355
73.45245002811275 0.0 29.34329893159748
121.5314237324286 0.0 25.87321564358824
98.43123323141906 0.0 36.71043783732466
119.91698475838629 0.0 44.433848153109466
14.831210838703495 0.0 33.66854055282295
107.27420010808812 0.0 47.20453079336896
161.4372425264942 0.0 26.624184604342954
22.480580919185577 0.0 34.53874678823111
60.20752416440427 0.0 15.298424267654775
197.73339126450222 0.0 16.680179424750854
136.17439953633658 0.0 34.71520919881737
36.67567085461554 0.0 28.113459078504455
138.15168248270697 0.0 24.70827798467315
180.29285821652533 0.0 15.751284314335674
99.27750589449684 0.0 38.91439721312446
136.63361576493944 0.0 49.133636359802615
107.4262586714574 0.0 17.724272460119714
53.89924640250533 0.0 43.62728943726293
107.02918130851526 0.0 42.33990270018046
88.80143211513727 0.0 37.07231758229205
132.839353244736 0.0 30.496899970037973
120.72561706295696 0.0 18.112459067125926
86.26449330925362 0.0 32.85887025807173
184.05090808849152 0.0 19.62665952569884
39.43899251148564 0.0 45.46355532837314
111.82968537689592 0.0 25.766169189084074
110.94659550386174 0.0 26.50429333528323
36.74698014505678 0.0 26.18933246510504
36.83286609692542 0.0 24.301142958031228
113.61546749517233 0.0 17.884775540918866
43.51866265680895 0.0 45.9208792406137
147.430218359454 0.0 45.23359686878336
53.55719962044511 0.0 11.415970554769931
84.02322454088065 0.0 41.26272251008203
41.7935567521438 0.0 40.065807091732076
198.67169982236035 0.0 14.419211096327974
152.87764940209706 0.0 39.713068290990336
42.133328472335386 0.0 16.150572357692973
150.6764875356253 0.0 19.202652680283695
73.03888226987152 0.0 17.287619887235678
49.6376336688159 0.0 17.23550347925046
39.6720456567573 0.0 39.34888968052863
75.84502456704675 0.0 15.973007641139727
96.25196248034933 0.0 24.788546803780896
14.818121491813631 0.0 37.33680641317177
158.32899703959248 0.0 43.55468283701731
111.38312563539671 0.0 11.016119077334228
163.76558732996617 0.0 23.99827379415365
116.54100192973266 0.0 37.72389287972823
133.92721259895325 0.0 27.293046698785666
18.347772388197942 0.0 24.559274933605558
55.26669255955301 0.0 13.469191386595668
133.51177996847701 0.0 30.477155892534185
61.13667205477256 0.0 29.70966115227068
86.50761527250869 0.0 41.82272330539024
59.81880448624782 0.0 10.890664314193366
82.71659061847785 0.0 31.89924145194213
94.03340204565949 0.0 19.14441403051764
176.16583597442556 0.0 45.69566285405576
198.5139380654678 0.0 40.76387622043586
178.3114070865317 0.0 25.42692462559197
188.70597530986993 0.0 33.04811893039389
129.4144490890731 0.0 44.34481128985836
138.92338128441315 0.0 43.240333964176074
71.536269176015 0.0 43.8933467299695
31.439763296356553 0.0 19.45170795803003
139.53602632624094 0.0 27.85004245123442
122.46029317523346 0.0 23.108516476231756
71.25815781237202 0.0 39.12715020462757
151.34766551374244 0.0 43.670154521809444
198.41159035765642 0.0 18.475028252395834
178.8703243370959 0.0 25.742503272456347
165.33257553938614 0.0 47.28434375086559
139.0357267267601 0.0 14.780465506131698
182.4601842464254 0.0 41.860227928899725
98.40648329143414 0.0 29.573695212896336
128.76292012177362 0.0 16.8525448114905
135.6985569914053 0.0 33.42740024608773
127.84329230509108 0.0 20.73412849446939
71.84495099799858 0.0 22.5281907727015
166.86869199073467 0.0 45.148173521673534
28.27983940840762 0.0 35.2218032901609
119.19048946423743 0.0 23.78461074950748
125.06270675995269 0.0 31.10528546172845
159.52174501696842 0.0 41.85199386790052
184.49352489756953 0.0 16.443464317864247
133.59898813127495 0.0 40.83497330344687
152.30969584610233 0.0 38.72450264518591
86.65816217911123 0.0 36.490619584552874
76.49743616360851 0.0 31.646813587026035
27.905515872354652 0.0 31.3168611715299
179.33738967526494 0.0 18.826873007806974
196.60384394217306 0.0 41.36743261392486
192.9118927901512 0.0 23.101224500774972
127.51284212455286 0.0 14.547191604618991
106.30060793830067 0.0 16.190299157384906
104.36563173409796 0.0 32.363507748497724
28.331177580835966 0.0 45.14177927286325
53.93429655224983 0.0 49.14237335838509
38.76899759876417 0.0 45.80680876485954
166.1574858438017 0.0 41.76407670203943
156.98873535489471 0.0 21.597087801292297
27.93038632365859 0.0 48.97076916321413
68.57840209033776 0.0 12.375777546047932
62.55800312582419 0.0 16.7523159793289
180.2986104244618 0.0 29.927919674740068
14.76827847225756 0.0 43.45385813117127
122.30637000601686 0.0 45.87574122768208
168.683707979436 0.0 14.625518305756913
75.94547966381803 0.0 36.17927452319148
166.4914445048007 0.0 43.51052396457622
118.10473274204277 0.0 42.71020345277937
127.16922370076898 0.0 29.540072349906215
136.69443985317628 0.0 25.993753575768164
197.858248926518 0.0 22.79168241484344
117.26763906686891 0.0 38.918201753635614
61.5256914250137 0.0 24.494838572651055
126.46052683686287 0.0 39.435652407081236
190.94747350786852 0.0 36.70628692742402
88.25787958601843 0.0 14.657939421929207
126.07800020020073 0.0 13.356604548078481
71.83482575225986 0.0 49.54152932458874
111.76589920830372 0.0 12.668626682270405
121.28652746395993 0.0 14.44032299361675
55.469582314721784 0.0 19.832255886339887
60.497009462879305 0.0 13.150881767611203
124.68058334148773 0.0 24.187710702630266
36.80931568298462 0.0 23.381256382078817
147.92959435982345 0.0 30.69580901256167
183.5375882519976 0.0 18.51081901586875
22.33987482593857 0.0 40.75824991688129
16.914505419183403 0.0 49.987557609222065
67.89092712281983 0.0 17.08675741670475
101.01254859807558 0.0 32.44415701825186
192.229891800865 0.0 36.055680764661574
72.60562167879047 0.0 17.28662315307738
130.6340267650928 0.0 31.06120575001528
44.82189594621384 0.0 32.695688973792066
10.684368006216669 0.0 25.57171890112414
42.98370536518487 0.0 32.40746226946568
82.50471930450732 0.0 22.26869925204869
99.1480020163779 0.0 34.90696745858692
122.70747761423848 0.0 20.496417190650497
135.74879304444084 0.0 32.81778274257284
112.74345070360089 0.0 19.31086086950019
98.4549190886919 0.0 31.75336267116895
25.25370742228045 0.0 13.092423126564716
94.00591777634175 0.0 15.807084090950486
130.5610779474784 0.0 43.48504549303493
22.32781081791926 0.0 28.164695541477496
91.21479070751255 0.0 29.981817862172964
32.86243429672116 0.0 18.973466453313183
134.67121606648874 0.0 43.16714240295795
166.15534180806623 0.0 25.418308762524337
119.13657534029839 0.0 46.95715742510857
121.10198994395066 0.0 18.899198463358516
141.50137252805735 0.0 33.13093070577719
14.975138114030186 0.0 38.92355247268416
18.034072700914088 0.0 46.579461341941915
62.57499691077057 0.0 20.037163285760542
156.0470810733633 0.0 26.094945842343293
104.309944184308 0.0 49.51849544930739
102.91598346173713 0.0 22.04619281795169
35.126988161312795 0.0 40.27956770272078
109.79437709806295 0.0 33.717135146257874
186.32905365432453 0.0 43.88491378366145
31.674379656684042 0.0 41.31934845370443
83.68947029103053 0.0 44.13221885837383
63.888355555319656 0.0 20.95218234866666
16.969776605137753 0.0 29.79127428277692
189.10528168598915 0.0 25.075017619007347
48.74040396682084 0.0 27.43617300511481
51.21791432464987 0.0 45.42972201616921
41.04167074675042 0.0 31.411292836978607
37.01386558655405 0.0 29.16157435693846
168.70926059551886 0.0 25.35536764593072
117.86953998727559 0.0 27.530938498279824
121.80045093582551 0.0 28.168433916817783
127.94142812805553 0.0 30.91419989493548
31.827409161860103 0.0 34.31904441141786
12.728130931130512 0.0 24.800579877109485
122.7029122662671 0.0 27.55747986530466
113.76376156334469 0.0 48.72531401585345
51.338755602228645 0.0 48.05093454356166
182.36307637533298 0.0 17.88516640069939
90.71065589053639 0.0 22.458857036962932
55.241266860662485 0.0 26.372923396355247
112.18324250756365 0.0 29.268789618160085
56.881313034513475 0.0 11.915400281244008
20.377337310817673 0.0 25.497032149749323
87.71118086427181 0.0 30.182374653037986
136.57717355997482 0.0 27.99865266289721
79.31162248545752 0.0 23.86856539549899
123.34591652292633 0.0 21.62380776448773
169.19211888564234 0.0 37.166917920551
90.87100432830687 0.0 15.65402939414966
175.21062060080436 0.0 25.524742014401383
21.89391838849139 0.0 35.49485230338854
107.63531843048102 0.0 27.858911180753058
77.17933548338893 0.0 36.65636267407746
174.81478863834306 0.0 23.397477004456015
40.704959231416254 0.0 45.187587885992684
19.8029297475716 0.0 40.22296406194094
123.91037748401094 0.0 44.07569597253825
86.31689390604879 0.0 28.69757776023587
75.75402381949822 0.0 45.52670606396993
124.5780958244823 0.0 39.41293698951782
192.75519804250712 0.0 46.09973722350639
17.10997446866458 0.0 40.2738154796058
150.66957968308145 0.0 39.85732402160524
139.72632029645908 0.0 21.270793263541243
57.20245841685304 0.0 19.104351236783312
21.54115623748095 0.0 43.78734744797646
56.351638277876546 0.0 22.806274414038565
47.814436924845374 0.0 18.180984205079397
118.55614454468714 0.0 48.19394777616018
197.59553383918526 0.0 11.809604232630022
30.460154644534274 0.0 45.087917714940026
117.81974646754136 0.0 19.60425793898926
107.26002761744142 0.0 47.987816699095085
44.35310489170093 0.0 10.17562824638459
15.64544626194564 0.0 18.747699380569554
89.69317276052061 0.0 29.51583224435439
99.1690110245642 0.0 45.32124794641123
120.54083501091975 0.0 42.30532067485951
108.57320766204599 0.0 30.202983709308633
159.16167879246248 0.0 19.738058980350594
162.83265027167815 0.0 43.33836847153013
102.59238997672293 0.0 46.63050451577042
107.1437677189702 0.0 20.768388460095185
80.61831362631432 0.0 35.699369142138224
115.38893459920442 0.0 30.70032641279427
155.2487826950691 0.0 43.276194895674315
151.72795554544317 0.0 33.65832055958374
93.87496974198277 0.0 36.577343360729415
174.4040205512215 0.0 43.94564106728761
190.68935481520265 0.0 15.636124687812746
112.3720157989404 0.0 25.376076361454217
189.40847201769114 0.0 14.418667712027432
192.38235215460165 0.0 31.7455883740973
11.758561738631007 0.0 46.854783845276266
48.65930711574913 0.0 26.215099907614384
153.27114998936165 0.0 40.67757228126844
180.36508167852406 0.0 47.77478615474942
127.37600333831952 0.0 20.779225420587174
138.975202126751 0.0 25.61621643480968
94.32177097097406 0.0 20.59092906383533
28.466930537732896 0.0 19.613678920514946
120.36082344527172 0.0 12.881151432567673
11.343112291108328 0.0 20.444953070108017
146.55229097815854 0.0 44.44414726172696
145.7848086230078 0.0 38.76790272925365
173.1344242663248 0.0 33.018743877933865
190.69778245568943 0.0 47.18043041854266
103.70516662532432 0.0 42.09326650694594
150.61756252581273 0.0 18.37860495906211
38.52948100439808 0.0 25.561531324978084
172.50631061963642 0.0 35.08807905269674
34.984237587939916 0.0 37.166259878115824
189.4959226610475 0.0 22.283558461214177
49.6598947178672 0.0 49.35217633726423
181.2981224867628 0.0 21.790072530804782
58.15571022025619 0.0 25.911205639868786
179.0092086511813 0.0 28.231282456159285
17.575477243182114 0.0 35.7652225050018
161.25281337973664 0.0 34.58887079971779
148.55512096407463 0.0 45.79035765461728
46.60232300449774 0.0 22.84991970757725
194.13906821282725 0.0 43.58655225835543
128.7375733071641 0.0 33.23360327810406
160.72757105296176 0.0 37.201465922039134
192.06980444622593 0.0 13.695278629330637
56.862781534483126 0.0 19.344858998403378
133.27718421354098 0.0 11.785676145793435
125.64628818431927 0.0 33.78850259556279
86.46680010761602 0.0 20.71082604083375
66.94320776940933 0.0 31.380401182353843
140.40087053801 0.0 42.83574074857818
37.66381727174375 0.0 38.58373797384799
23.38123577391705 0.0 44.353048964285804
108.19727080675317 0.0 48.297161573246925
161.67086365676658 0.0 37.05123813619815
113.49831286822261 0.0 15.984440280975711
129.914634456869 0.0 22.61181518102366
153.17333711540172 0.0 46.30148959732948
171.18607856255713 0.0 22.434532810762022
91.79765280386674 0.0 42.03763505678614
161.63650042555977 0.0 39.42806626907898
164.6929231482686 0.0 11.755146754186194
113.63451905512214 0.0 42.15373407617989
151.3106505662462 0.0 42.954561173033056
40.29073844564407 0.0 39.486936726828105
140.54329000814116 0.0 18.73933637246573
19.029360851066578 0.0 34.27573031877883
30.241421793967987 0.0 20.431896945617197
171.00659356162754 0.0 44.36116050371125
10.780729232248225 0.0 33.8041336325214
17.913486309500026 0.0 30.036270382869983
50.216332588737984 0.0 36.97335644054579
174.3383193323121 0.0 46.6250735256638
47.790252374957944 0.0 33.76386348110567
59.45010960822915 0.0 14.094023509385881
23.114551138163513 0.0 24.387386483852215
39.38319245606205 0.0 39.089455702965026
101.4633724330632 0.0 17.372532328830225
32.99718686324092 0.0 40.70030115806698
101.9766281222918 0.0 44.00099810826599
32.33478548355136 0.0 28.518242733382706
189.29099585712058 0.0 47.41901383718939
35.879955204458525 0.0 15.883456125245466
148.5719038917667 0.0 11.598435748510333
60.29762590964544 0.0 49.31134647334791
12.667121726825362 0.0 46.085023840380956
116.03001688794212 0.0 18.405031000256322
199.0628107118929 0.0 20.900109783978603
11.320700081861034 0.0 43.78327533758705
22.200367208031118 0.0 27.483382504230253
101.63721871420478 0.0 25.19669533905299
136.4992005001028 0.0 23.408957248450367
137.0496286727571 0.0 21.110871559637793
140.57105499894328 0.0 11.189223033026323
60.57010952143837 0.0 15.191682998185252
55.92203662348755 0.0 20.3291632625587
70.76690785938328 0.0 46.624336599100076
139.30608859241315 0.0 49.34071907784116
19.08200406020475 0.0 27.987505582173196
43.564318560705665 0.0 11.146869065052067
51.98592642511188 0.0 13.663927696856927
180.90580396082404 0.0 43.1096328358385
152.27532831348643 0.0 39.97797325828401
164.4686125854328 0.0 49.35316467403411
153.46906069938848 0.0 31.109115121291346
83.56079648064579 0.0 11.728921534035992
47.19108772200565 0.0 12.320555148927115
33.74492819376002 0.0 49.10727056774643
106.36132911830266 0.0 21.604782415344808
175.47872853521076 0.0 26.356874223409875
197.29640717285386 0.0 48.39698715622188
67.4107202117515 0.0 41.19544035640661
48.61280911293145 0.0 41.24395867789772
120.2667058920526 0.0 35.903559408246274
142.7520994552923 0.0 20.370882399205264
41.425010019660576 0.0 47.4946580516106
54.396039649764674 0.0 15.986037451778694
60.756635279298926 0.0 11.052157587350324
92.37327186286146 0.0 42.87110125168035
164.70040329319704 0.0 35.096016555757004
132.32664162514058 0.0 40.07163746255212
50.01103129584561 0.0 39.136602440372165
124.89630357350809 0.0 20.05029581419796
199.60738594891285 0.0 18.844019418560976
92.33081985820127 0.0 20.16484227138168
53.52881327915217 0.0 24.04891090102549
84.19541481065973 0.0 41.159376237826976
71.83575101017757 0.0 30.84739081794695
21.5707556716914 0.0 45.232352176773446
10.6921573513931 0.0 17.953245945775294
76.56077199295777 0.0 12.874229857402376
185.01707486560235 0.0 48.85791648287803
89.5272630254202 0.0 47.8727066657301
76.92553174068847 0.0 19.236941948208518
134.18066109282998 0.0 22.624611892311055
62.66123333798566 0.0 23.32288811276368
47.98306386208767 0.0 43.83068194325453
62.512962839116575 0.0 45.60770794366245
45.545257444630955 0.0 10.498879546959463
188.75847574294139 0.0 37.58895087646214
135.51165374667778 0.0 22.006595243871985
10.105699031221894 0.0 30.047334930482815
121.97502346412404 0.0 49.70612727409576
194.90617778228764 0.0 15.397571741068287
48.00982271673277 0.0 35.46479815032475
37.50491935683647 0.0 34.06286034388313
45.776593792868624 0.0 44.08772642269686
46.01591328450093 0.0 40.75972661897937
192.18459327510016 0.0 30.95088682166078
11.228872867764276 0.0 43.907977909302616
19.623662473158646 0.0 27.783956012737985
95.84710927212959 0.0 29.537386247475244
191.14158717094384 0.0 45.861498159602135
88.48908212596713 0.0 28.446415931881965
70.54693319005223 0.0 25.658965235138467
121.625946553292 0.0 29.22548655065759
25.83551346146967 0.0 10.475030156209751
19.971398843463675 0.0 45.59343943516464
151.69415942925804 0.0 38.253464983052666
151.84744109676637 0.0 49.997534429848045
153.0457602136853 0.0 13.933337036951428
130.52028649582064 0.0 41.27966370675838
71.96759320402029 0.0 17.386465183827625
58.10650940428167 0.0 33.82612066168751
173.73835269483317 0.0 29.091249480712257
156.23532209400537 0.0 31.005143779589442
158.90861143971213 0.0 16.52108071694161
152.9121356348819 0.0 28.159310957068342
63.445979693606105 0.0 11.334179494551279
185.425397217138 0.0 42.01236276886717
185.87884835594033 0.0 42.06060599667887
135.7763607302021 0.0 46.52066557481406
132.0010354872975 0.0 11.538344863260397
176.61190931250135 0.0 35.56085367491177
179.44450875111968 0.0 13.496826848172336
81.35686377289046 0.0 12.381757878376497
12.167389692868145 0.0 11.033525740103256
164.6793235989872 0.0 23.542220482330002
186.55034080561046 0.0 19.39568604805502
183.74631523544448 0.0 48.541499093801
16.64583954553531 0.0 10.912852143213257
111.54219534122008 0.0 49.661450176784406
151.3383941462097 0.0 45.87502465327637
107.05472144652465 0.0 27.228191878861164
16.854347214376784 0.0 45.15711783277033
131.40960142500347 0.0 12.399360003657982
39.357479640139196 0.0 48.56923403744569
22.088524778700936 0.0 29.82916074748395
73.08338487451424 0.0 15.95897656252816
28.201205167361245 0.0 44.345225972852404
17.957974985816325 0.0 17.816970135174532
195.17359931416595 0.0 36.06163179950503
152.81588188387582 0.0 22.506634816712467
121.30864643208511 0.0 49.08526826010303
104.78327482924327 0.0 48.14627709721755
14.740495318899868 0.0 43.31616008527333
159.47410474542443 0.0 19.982281343794547
166.4326039040845 0.0 40.83956216988507
16.929885557583574 0.0 46.598766449889474
22.540449955618215 0.0 32.7696135804161
178.01183708060626 0.0 47.08172002460904
177.67025135454435 0.0 26.663283328857265
88.91472384182607 0.0 48.4881779937951
188.46373086953946 0.0 38.07084367566134
29.134253399698963 0.0 43.726935231876816
196.89931723621467 0.0 26.42141151531902
118.56734734298878 0.0 44.74922218569629
103.559875810551 0.0 43.466750139032364
17.76681524284741 0.0 35.06317836766833
57.92650541229678 0.0 36.766666527256874
63.05439032564694 0.0 34.15084325138571
62.69087787248562 0.0 10.724204827308949
112.3378077567992 0.0 21.853685182564853
129.24140455051676 0.0 41.03792381374995
184.93991021061683 0.0 18.053056009289527
163.9611450339027 0.0 12.561382587291753
199.2891451746961 0.0 19.508047224387237
72.6592773720025 0.0 33.98792675158137
31.594392065618283 0.0 11.597330326127038
30.465759943021133 0.0 18.344805798418612
130.33752598501965 0.0 30.01127605065561
186.63636288516588 0.0 27.074852238149575
62.0083624824537 0.0 29.113630883095034
107.77144992063393 0.0 34.049818242210236
159.7443103768648 0.0 10.34821555264787
150.1130514546032 0.0 16.50288782354462
87.51843627490064 0.0 44.844299772086
58.11038270639192 0.0 19.6451907126967
170.52852912931525 0.0 18.01313871333904
188.66158266342978 0.0 16.823691711144196
44.48354173496597 0.0 48.43670912381498
131.69771867889597 0.0 17.20898838023993
166.71311861600418 0.0 13.324718324820104
18.20549859105234 0.0 29.330752860322697
38.477327029952534 0.0 43.879970638114834
174.4040327867304 0.0 35.101382170448474
107.44836552170017 0.0 15.023252691151182
116.37150594066962 0.0 26.145472942949347
42.467081523438516 0.0 30.507354642390062
53.65885034131567 0.0 35.14346721845676
44.519225321949406 0.0 34.774560814442204
160.388701115624 0.0 18.898024468658893
155.48091509428812 0.0 32.50404929824791
148.27085607008834 0.0 12.270167995076005
47.90038296652909 0.0 42.92911145757531
23.751682596608447 0.0 31.593856066491007
156.30843143854005 0.0 39.98767771014081
119.07767512602592 0.0 49.5777059400752
81.70649433343742 0.0 28.110396151096964
90.14150909747732 0.0 22.50588664558761
147.154812812514 0.0 48.60203341097282
48.85947213697559 0.0 49.70488993175608
146.73375587126375 0.0 30.624177642930007
152.25319848559715 0.0 36.009924640465485
54.11931530183937 0.0 26.23173562106676
192.89782551560216 0.0 25.248404529561665
121.17152775374319 0.0 15.516963549409635
115.951502369692 0.0 18.499119479561514
83.11201070480493 0.0 32.95118494957793
78.07582488047072 0.0 28.58559217050349
90.98046016745049 0.0 35.68350676574004
30.491123464494684 0.0 24.12985169332705
134.12467690700316 0.0 40.05710791275868
33.02879636122719 0.0 23.39608316929596
106.42888937890757 0.0 20.601883955393237
20.31123650780284 0.0 24.806880097105886
161.6014909355608 0.0 12.933363709969083
24.191323174598732 0.0 12.123270951045804
121.33463340367064 0.0 22.338130447940706
110.08397489618177 0.0 35.57471373478127
188.1321462423115 0.0 22.85452041345881
46.00054976834259 0.0 17.909921528737264
118.41111483833988 0.0 17.457289804606553
80.91323156380044 0.0 46.37287308615333
164.73971488496326 0.0 11.730335296040092
187.62655124354174 0.0 31.903922085214123
121.28134306699201 0.0 48.66839824762343
52.88267137377802 0.0 15.15635134208428
181.7094934795458 0.0 13.860460340002376
67.46422725642708 0.0 37.661300564863176
162.94311514489195 0.0 38.44612728239013
146.66576301054798 0.0 48.233325075254776
84.76952349791475 0.0 44.522111421087914
66.82948419679121 0.0 40.022163155728094
184.42820342065676 0.0 13.14036408780495
118.18941636743318 0.0 29.12809764250038
38.700905742646995 0.0 41.389928389826245
22.426734749957195 0.0 44.531395444437905
137.47999138259718 0.0 20.639998359446977
135.97219658432869 0.0 49.011069096227224
177.75619143187123 0.0 25.32573530717702
93.60041387522105 0.0 31.136026519233823
10.756157950630081 0.0 43.58546557050464
59.575030615381536 0.0 34.903323146211314
16.106397526742 0.0 10.222154269935348
159.34573453227182 0.0 18.106389478045703
188.03612156896344 0.0 37.56165799915361
50.100938402626554 0.0 27.41933968634602
179.1842084690553 0.0 18.352180865222575
96.94683310701019 0.0 43.07769865988196
100.32299517073946 0.0 23.193882903882642
84.58580523847036 0.0 46.253085789682856
13.443729131937214 0.0 38.64097638307655
67.71510740957888 0.0 15.217331927732388
184.38217779779916 0.0 31.147503138739992
131.9892260680145 0.0 37.394193125369085
153.92961421971134 0.0 18.04263723712646
22.848331783239388 0.0 15.26916553476703
119.01493033580127 0.0 12.737356890667177
142.23409718679693 0.0 19.219690742129252
138.8102587384154 0.0 18.157528886517802
15.193685653157235 0.0 19.869245860242938
35.540488051981946 0.0 12.668684029379293
86.31331580488556 0.0 31.224709813641766
66.2111989110482 0.0 16.20249226877008
171.5078773228486 0.0 48.08029304020583
27.097197201074515 0.0 34.06556960285914
150.62996664992798 0.0 26.018522696828185
198.02317684900422 0.0 46.361254137720145
41.98812361209349 0.0 21.189943065142515
176.02470999396832 0.0 24.103036916550963
100.80390649349818 0.0 18.659650577769366
191.77874925836807 0.0 44.776443274643576
187.03354696192838 0.0 15.608538079748575
88.92189707731626 0.0 47.2465131468974
24.40823266342521 0.0 39.085307724338286
136.8373428673804 0.0 40.64616810627342
17.07314058378221 0.0 24.902829944350707
29.45963809799978 0.0 28.428913183577016
11.09462584911891 0.0 38.22579093489685
46.10588312671002 0.0 12.322592894959561
58.335191441060005 0.0 18.554154217066046
76.8375080841556 0.0 23.522908441236726
179.8450133774434 0.0 45.77052213708171
103.79916665581422 0.0 36.77888866506368
176.3887726723124 0.0 34.14792459743357
111.85929605100982 0.0 25.80556372670287
10.130493965160001 0.0 46.428968009290834
130.647349316834 0.0 15.88166936175397
12.903881587418766 0.0 32.45792728449849
169.60379166754134 0.0 46.96238182664275
89.86283638835124 0.0 23.05382397674307
138.53864528905885 0.0 19.449982911184055
163.10079596404148 0.0 32.98194296876419
24.247109120648876 0.0 33.16596550995676
132.7224359539943 0.0 36.2153685695847
176.97469687741392 0.0 27.726288736147605
38.58098238150815 0.0 45.17588778145346
181.7413091921136 0.0 24.04598550204815
58.46970124914976 0.0 45.32086834387791
73.4510967437619 0.0 44.66695333207263
180.83615022428353 0.0 17.74138459106966
192.45150424264784 0.0 24.673949764304602
130.94076646268732 0.0 25.82396758379971
15.712512270099806 0.0 23.608161427686937
113.91149388890256 0.0 17.04897614043687
173.56801730635286 0.0 49.67381726842512
172.40640341913632 0.0 40.412701676217665
146.4367970896019 0.0 12.989973301771304
156.98882106210343 0.0 18.849249638552045
76.69169955567001 0.0 40.888235770543886
125.999202761426 0.0 37.050879890155095
125.07347108913761 0.0 13.454491037169083
21.156357061273127 0.0 31.656911601617868
68.06379456762852 0.0 47.817078641575726
31.059467358467344 0.0 32.02756783299742
126.59799130155228 0.0 39.584825399626396
84.88774342086481 0.0 22.619276921733785
63.02852250705661 0.0 31.573954425103853
108.08764758654073 0.0 14.5331289836016
86.50033201725752 0.0 25.99887365792851
151.04886078298352 0.0 31.910263495304513
194.67267863547718 0.0 18.764333232298686
187.36062435294963 0.0 25.518388061893738
52.11788802686856 0.0 16.09322646485868
172.38274896476545 0.0 15.033728063176689
159.31771251265945 0.0 22.816586258193272
106.25788563622217 0.0 20.865887686413544
63.824651422610174 0.0 18.196969083825422
115.54903208804141 0.0 31.674042785090066
158.94435020988098 0.0 11.36900395184535
171.53486498162377 0.0 14.03726100080597
55.96483983013607 0.0 14.843492391540941
190.14736726835406 0.0 10.019978196919554
132.67014845223946 0.0 10.243210673607447
134.02484918704965 0.0 10.233821862840657
120.88355240706508 0.0 35.41216607531295
86.42176337920893 0.0 34.77837607776499
35.02127865226579 0.0 22.755327471324094
154.713341945897 0.0 18.316298736848537
78.7788283222561 0.0 33.32609296233653
148.3533279696369 0.0 29.151516490533176
92.87734196599855 0.0 40.39560689472213
59.803722145155305 0.0 19.627548795652466
157.0532045184271 0.0 31.855266487236086
38.00982710908483 0.0 41.654370134408964
90.96871448655786 0.0 25.764897340820777
37.59940345386366 0.0 17.981892253980995
186.57411041406556 0.0 27.15812281169328
56.99329030159962 0.0 47.77697174864041
123.00550142530955 0.0 31.837351939944828
49.16394714519105 0.0 21.5239141839977
53.65906706471259 0.0 22.467201623373473
197.37499609270373 0.0 47.55029809706434
59.26538324825002 0.0 47.03587832674563
58.84148879242383 0.0 36.55746369715061
21.9233758826254 0.0 17.068488033867013
135.6485722040334 0.0 25.53196621144864
38.630222683934775 0.0 49.197577511645754
93.52568730205041 0.0 45.82031859407171
58.40241382366449 0.0 36.67116895116796
78.96747467639644 0.0 20.69440069747599
170.4470069312932 0.0 30.6011793089012
144.42459228701958 0.0 35.44061329666785
183.7340583975589 0.0 10.285459142139363
42.91109988346854 0.0 10.544228809719943
182.55386081314325 0.0 24.360658307839724
13.17370168162585 0.0 18.70166373545192
180.68668597238283 0.0 20.55522373857814
154.98621276081914 0.0 10.797133318950095
35.52177652918206 0.0 15.8608465236044
123.17759298737275 0.0 18.647261179662713
18.68604111386349 0.0 43.127466264439626
190.8298557607963 0.0 45.469437153283955
78.77630082667093 0.0 19.064080204837932
76.3844402475171 0.0 37.8890649458066
44.9083163414703 0.0 29.46480250665045
151.45184931235957 0.0 16.414442903331185
93.67979967562142 0.0 38.60968948491239
116.54468427688518 0.0 11.511259419797542
15.698733139157731 0.0 28.16772993947381
20.558090158315274 0.0 20.405957670287087
40.66699521184789 0.0 32.52950456973315
126.17215514347562 0.0 42.78116197039322
185.50549320094558 0.0 43.8946636044656
93.35410449144533 0.0 36.309392238903754
48.62161225020411 0.0 29.799069818078184
48.160706471510636 0.0 13.335756690273408
57.56119296176098 0.0 30.835544774380153
64.44283664064119 0.0 29.901101994040395
148.6782051292388 0.0 25.488005912684528
130.90361432956502 0.0 25.312985290907104
33.07614646067354 0.0 46.2127962790275
104.63116191854607 0.0 12.401016766680284
165.90519363398323 0.0 16.10141101252447
172.3591636874838 0.0 11.033153565550133
188.1346775346859 0.0 28.170174373685512
118.8223763421011 0.0 27.648430626639314
36.230122273837495 0.0 48.064562525148716
176.7710157119257 0.0 22.098095108935105
117.25024896995603 0.0 37.70532053128064
87.67553811667416 0.0 29.498028432624555
138.20723447594668 0.0 12.832331984652082
84.28148308206434 0.0 26.12139434752768
150.4635321791499 0.0 27.351454727774573
59.186302288130356 0.0 23.459050552925138
25.066171799231086 0.0 24.678007776809384
177.8908762033604 0.0 48.143092646261124
70.24709709183396 0.0 15.83023845655707
113.08690985475559 0.0 29.081184581547397
178.80982636937867 0.0 48.864042518796495
157.7669017043381 0.0 10.190540415043156
84.62372260620481 0.0 29.651559366222454
36.00802584793708 0.0 33.305563705432775
195.98154350627655 0.0 48.90177583745658
81.9825571171849 0.0 45.05399986496994
114.93081322986305 0.0 42.17017365620056
150.79998994950788 0.0 45.24127777747404
197.51353758625697 0.0 17.060235329544696
14.447734753719091 0.0 42.60665007083838
70.42080425324032 0.0 15.97368553123907
87.60907201435057 0.0 33.01511744902794
27.800501744073866 0.0 27.285577336904396
108.1088011995149 0.0 43.294101163692545
131.2440492157831 0.0 45.405703814663966
72.33318455142206 0.0 10.394201862693254
177.2910376389055 0.0 15.5649475160173
30.883868234753365 0.0 19.556118263348296
22.406284564287116 0.0 23.45849647299017
90.11998171185728 0.0 11.93736286623075
71.48801887667503 0.0 22.789224924006692
35.66265095773531 0.0 41.998926671741856
95.62133434329 0.0 29.824636836264823
